NCOLS 400
NROWS 34
XLLCORNER 341244.004907
YLLCORNER 4517435.80519
CELLSIZE 10 
NODATA_value -9999 
-9999 -9999 -9999 -9999 -9999 -9999 -9999 150.93 151.15 151.25 151.15 151.02 150.96 150.29 150.36 150.67 150.77 150.87 150.96 151.09 151.24 151.33 151.46 151.52 151.43 151.25 150.98 149.51 147.3 145.85 145.05 144.92 144.97 145 144.98 144.92 144.84 144.73 144.58 144.44 144.18 143.91 143.98 144.22 144.53 144.94 145.39 145.57 145.57 145.56 145.81 145.86 145.74 145.67 145.61 145.57 145.59 145.59 145.54 145.52 145.38 145.06 144.94 144.98 144.99 144.92 144.8 144.63 144.47 144.34 144.23 144.12 144 143.46 141.78 141.18 141.19 141.25 141.29 141.32 141.33 141.29 141.24 141.16 141.05 140.92 140.74 140.54 140.35 140.02 139.62 139.33 139.21 139.18 139.12 138.96 139.01 138.92 138.62 138.32 138.11 137.93 137.69 137.49 137.26 136.77 136.36 136.17 136.03 135.87 135.68 135.89 136.15 136.24 136.25 136.08 135.94 135.85 135.67 135.58 135.5 135.02 134.9 134.74 134.53 134.34 134.2 134.12 134.06 133.9 133.58 133.44 133.35 133.31 133.39 133.51 133.62 133.76 133.82 133.83 133.64 133.53 133.83 134.16 134.82 135.13 135.11 135.38 135.67 135.99 136.42 137.08 137.67 137.82 137.9 137.91 137.95 137.94 137.8 137.71 136.99 135.81 134.95 133.32 131.98 130.82 129.49 128.98 129.03 129.15 129.13 128.89 128.69 128.52 128.41 128.05 126.69 125.61 125.59 125.59 125.59 125.96 127.5 127.92 128.34 129.17 130.04 131.47 132.89 133.08 133.06 133.12 132.42 130.97 130.26 130.78 131.14 131.28 131.24 131.27 131.39 131.33 131.3 131.22 130.96 130.8 130.74 130.71 130.7 130.63 130.62 130.7 130.69 130.62 130.59 130.59 130.55 130.68 130.78 130.83 130.82 130.89 131.02 131.16 131.18 131.24 131.38 131.43 131.46 131.32 129.58 126.34 125.36 125.31 125.31 125.31 125.31 125.31 125.31 125.31 125.31 125.31 125.31 125.31 125.31 125.31 125.31 125.31 125.31 125.31 125.31 125.31 125.31 125.31 125.31 125.32 125.32 125.32 125.32 125.32 125.32 125.32 125.32 125.32 125.32 125.32 125.33 125.33 125.33 125.33 125.33 125.33 125.33 125.33 125.33 125.33 125.33 125.33 125.34 125.34 125.34 125.34 125.34 125.34 125.34 125.34 125.34 125.42 127.58 129.89 130.24 130.16 130.18 130 129.97 129.98 130.02 130.27 130.21 129.44 128.98 129.14 129.44 129.68 129.87 130.03 130.2 129.91 127.9 125.72 125.36 125.36 125.36 125.36 125.36 125.36 125.36 125.36 125.36 125.36 125.36 125.36 125.36 125.37 125.83 129.56 132.54 135.46 146.09 157.03 165.05 170.08 172.5 174.34 176.27 177.56 178.15 178.53 178.82 178.85 178.82 178.6 178.29 177.97 177.52 176.89 176.22 175.66 175.35 175.54 175.55 174.53 174.01 175.42 175.97 175.85 175.22 175.24 174.05 172.51 172.31 173.02 173.73 175.42 176.61 177.74 179.64 181.24 182.85 185.02 186.7 188.35 190.31 192.42 194.64 197 199.61 202.32 204.83 207.14 209.62 212.15 214.44 216.59 218.77 220.84 222.76 224.68 226.8 228.48 230.37 -9999 -9999 -9999 -9999 -9999 -9999 -9999 -9999 -9999
-9999 -9999 -9999 -9999 -9999 -9999 -9999 149.7 149.78 149.8 149.72 149.58 149.5 149.51 150.09 150.53 150.65 150.77 150.9 151.02 151.18 151.27 151.32 151.31 151.25 151.12 150.72 149.17 147.16 146.19 145.57 145.29 145.17 145.04 144.92 144.81 144.67 144.52 144.49 144.72 145.08 145.53 145.85 145.97 146.01 146 145.99 146.02 146.08 146.14 146.11 146.04 146.16 146.08 145.94 145.88 145.86 145.88 145.87 145.74 145.45 145.21 145.13 145.21 145.23 145.15 144.98 144.82 144.67 144.54 144.42 144.3 144.16 143.89 142.79 141.87 141.72 141.78 141.82 141.83 141.8 141.76 141.71 141.62 141.46 141.28 141.12 140.99 140.82 140.31 139.46 139.05 139.19 139.4 139.38 139.3 139.35 139.31 138.97 138.45 138.2 138.02 137.78 137.55 137.33 136.88 136.36 136.16 136 135.86 135.63 135.6 135.93 136.03 136.06 135.96 135.84 135.83 135.67 135.51 135.54 135.07 134.84 134.73 134.55 134.36 134.22 134.14 134.04 133.84 133.48 133.36 133.3 133.29 133.46 133.59 133.63 133.74 133.86 133.86 133.54 133.5 133.72 134.19 134.77 135 135.06 135.39 135.73 136.07 136.59 137.26 137.67 137.87 137.99 137.98 137.98 137.93 137.82 137.68 136.51 135.27 134.36 132.84 131.48 130.22 129 128.68 128.83 128.92 128.75 128.47 128.4 128.35 128.43 128.19 126.65 125.59 125.59 125.59 125.59 125.95 127.38 127.77 128.21 129.17 130.26 131.9 132.95 132.92 133 132.8 131.35 130.29 130.38 130.9 131.21 131.27 131.15 131.14 131.21 131.24 131.34 131.21 130.82 130.69 130.62 130.6 130.64 130.62 130.67 130.66 130.65 130.64 130.65 130.63 130.63 130.76 130.87 130.88 130.85 130.89 131.05 131.12 131.17 131.25 131.32 131.33 131.39 130.85 128.11 125.73 125.31 125.3 125.3 125.31 125.31 125.31 125.31 125.31 125.31 125.31 125.31 125.31 125.31 125.31 125.31 125.31 125.31 125.31 125.31 125.31 125.31 125.31 125.31 125.31 125.31 125.32 125.32 125.32 125.32 125.32 125.32 125.32 125.32 125.32 125.32 125.33 125.33 125.33 125.33 125.33 125.33 125.33 125.33 125.33 125.33 125.33 125.33 125.33 125.33 125.34 125.34 125.34 125.34 125.34 125.34 125.79 128.7 130.08 130.17 130.14 130.17 130 129.97 129.78 129.85 129.98 129.75 129.11 128.97 129.3 129.61 129.78 129.97 130.15 130.22 129.31 126.8 125.43 125.35 125.36 125.36 125.36 125.36 125.36 125.36 125.36 125.36 125.36 125.36 125.36 125.36 125.36 126.58 130.71 132.93 137.83 149.34 159.4 166.59 170.65 172.73 174.69 176.57 177.66 178.33 178.74 179.1 179.37 179.32 179.24 179.1 178.85 178.61 178.26 177.84 177.48 177.15 177.15 177 175.97 174.73 176.74 177.77 177.04 175.97 176.05 174.81 174.29 174.55 175.48 176.22 177.09 177.2 177.79 179.76 181.66 183.41 185.45 187.29 189.08 191.02 193.18 195.52 198 200.62 203.39 205.96 208.34 210.92 213.43 215.94 218.35 220.62 222.69 224.66 226.7 228.74 230.39 232.2 -9999 -9999 -9999 -9999 -9999 -9999 -9999 -9999 -9999
-9999 -9999 -9999 -9999 -9999 -9999 -9999 148.59 148.55 148.5 148.42 148.32 148.27 148.57 149.68 150.41 150.56 150.68 150.82 150.89 150.94 150.93 150.85 150.64 150.4 150.03 149.29 147.83 146.43 145.86 145.56 145.36 145.22 145.05 145.01 145.24 145.51 145.82 146.15 146.29 146.28 146.25 146.27 146.3 146.36 146.4 146.43 146.4 146.33 146.36 146.3 146.11 146.16 146.12 146.08 146.09 146.06 146.06 146.07 145.94 145.57 145.47 145.45 145.52 145.53 145.42 145.24 145.1 144.99 144.9 144.77 144.65 144.51 144.38 143.96 143.28 143.04 143 142.93 142.83 142.67 142.49 142.32 142.15 141.96 141.8 141.71 141.63 141.5 140.83 139.5 138.81 139.03 139.4 139.41 139.4 139.35 139.21 138.93 138.49 138.23 138.05 137.82 137.58 137.36 137.02 136.41 136.15 135.99 135.86 135.66 135.46 135.56 135.8 135.77 135.7 135.59 135.61 135.56 135.41 135.43 135.16 134.82 134.69 134.56 134.4 134.3 134.22 134.02 133.73 133.43 133.35 133.31 133.34 133.63 133.77 133.73 133.78 133.9 133.83 133.37 133.49 133.68 134.31 134.79 134.87 135.11 135.42 135.69 136.05 136.68 137.32 137.64 137.9 138.05 138.07 138.01 137.92 137.83 137.5 136.12 134.75 133.49 132.16 130.93 129.64 128.77 128.65 128.83 128.81 128.32 127.98 127.99 128.04 128.27 128.2 126.48 125.58 125.58 125.58 125.58 125.97 127.51 127.88 128.26 129.21 130.59 132.26 132.9 132.78 132.92 132.35 130.67 130.24 130.67 131.27 131.32 131.25 131.07 131.06 131.03 131.03 131.15 130.98 130.64 130.59 130.56 130.56 130.61 130.65 130.78 130.63 130.58 130.62 130.63 130.63 130.68 130.79 130.9 130.94 130.93 130.96 131.08 131.09 131.18 131.24 131.28 131.33 131.34 130.07 127.02 125.45 125.3 125.3 125.3 125.3 125.3 125.3 125.31 125.31 125.31 125.31 125.31 125.31 125.31 125.31 125.31 125.31 125.31 125.31 125.31 125.31 125.31 125.31 125.31 125.31 125.31 125.31 125.32 125.32 125.32 125.32 125.32 125.32 125.32 125.32 125.32 125.32 125.32 125.33 125.33 125.33 125.33 125.33 125.33 125.33 125.33 125.33 125.33 125.33 125.33 125.33 125.33 125.34 125.34 125.34 125.37 126.75 129.68 130.2 130.2 130.19 130.11 130.01 129.9 129.66 129.78 129.78 129.49 128.94 129.07 129.48 129.77 129.92 130.06 130.23 130.14 128.31 125.97 125.36 125.35 125.35 125.35 125.35 125.36 125.36 125.36 125.36 125.36 125.36 125.36 125.36 125.36 125.38 127.46 131.48 133.49 140.77 152.38 161.26 167.39 170.72 172.9 174.9 176.5 177.45 178.21 178.8 179.17 179.5 179.58 179.66 179.65 179.59 179.53 179.36 179.01 178.66 178.32 178.23 178.17 177.45 175.55 177.41 179.37 178.99 177.76 176.96 175.81 176.66 176.84 177.35 178.6 179.38 179.24 179.39 180.91 182.78 184.54 186.32 188.08 190.02 191.96 194.1 196.57 199.21 201.92 204.79 207.39 209.73 212.34 215.26 217.9 220.45 222.91 225.18 227.33 229.33 231.16 232.88 234.57 -9999 -9999 -9999 -9999 -9999 -9999 -9999 -9999 -9999
-9999 -9999 -9999 -9999 -9999 -9999 -9999 148.15 148.07 147.98 147.9 147.82 147.75 147.82 148.76 149.72 149.85 149.98 150.07 149.92 149.6 149.34 149.04 148.62 148.17 147.59 146.88 146.21 145.77 145.62 145.62 145.84 146.22 146.43 146.63 146.72 146.65 146.53 146.43 146.42 146.45 146.54 146.69 146.7 146.62 146.63 146.62 146.53 146.46 146.36 146.29 146.16 146.07 145.99 146.06 146.09 146.07 146.06 146.03 145.86 145.75 145.84 145.85 145.87 145.87 145.78 145.65 145.54 145.47 145.4 145.25 145.09 144.92 144.76 144.56 144.3 144.02 143.76 143.53 143.34 143.16 143 142.84 142.63 142.38 142.21 142.09 142 141.85 141.19 139.7 139.1 139.24 139.4 139.39 139.36 139.19 139 138.79 138.44 138.21 138.06 137.83 137.58 137.36 137.08 136.46 136.18 136 135.88 135.7 135.52 135.32 135.43 135.54 135.44 135.34 135.3 135.29 135.22 135.18 135.14 134.88 134.62 134.53 134.41 134.33 134.27 134.01 133.68 133.42 133.33 133.34 133.36 133.73 133.95 133.89 133.89 133.98 133.77 133.25 133.44 133.8 134.36 134.7 134.84 135.28 135.6 135.72 136.04 136.76 137.32 137.62 137.9 138.08 138.12 138.07 137.97 137.82 137 135.72 134.4 133.02 131.57 130.33 129.14 128.62 128.61 128.73 128.66 128.03 127.82 127.81 127.86 128.09 128.02 126.28 125.58 125.58 125.58 125.58 125.97 127.56 128.08 128.43 129.4 131.04 132.5 132.8 132.7 132.79 131.88 130.45 130.38 130.75 131.18 131.3 131.22 131.04 131.01 130.91 130.81 130.86 130.71 130.55 130.56 130.54 130.53 130.55 130.65 130.72 130.55 130.58 130.68 130.69 130.66 130.65 130.68 130.77 130.85 130.89 130.96 131.1 131.13 131.2 131.24 131.31 131.37 131.14 129.1 126.35 125.34 125.3 125.3 125.3 125.3 125.3 125.3 125.3 125.3 125.3 125.31 125.31 125.31 125.31 125.31 125.31 125.31 125.31 125.31 125.31 125.31 125.31 125.31 125.31 125.31 125.31 125.31 125.31 125.32 125.32 125.32 125.32 125.32 125.32 125.32 125.32 125.32 125.32 125.32 125.33 125.33 125.33 125.33 125.33 125.33 125.33 125.33 125.33 125.33 125.33 125.33 125.33 125.33 125.33 125.34 125.49 127.73 130.01 130.18 130.16 130.2 130.08 129.97 129.77 129.64 129.77 129.67 129.28 128.91 129.22 129.62 129.87 130.02 130.14 130.25 129.77 127.16 125.53 125.35 125.35 125.35 125.35 125.35 125.35 125.35 125.36 125.36 125.36 125.36 125.36 125.36 125.36 125.42 128.32 132 134.15 142.93 153.14 160.95 166.79 170.35 172.73 174.77 176.26 177.32 178.1 178.72 179.26 179.7 179.97 180.06 180.11 180.2 180.17 180.18 179.99 179.66 179.44 179.34 179.24 178.94 176.64 177.66 180.5 181.1 180.04 177.79 177.07 179.19 179.47 179.08 180.37 181.51 181.72 181.9 183.16 185 186.46 187.89 189.48 191.33 193.21 195.34 197.94 200.8 203.62 206.54 209.13 211.65 214.3 217.26 220.14 222.96 225.76 228.3 230.52 232.41 234.2 235.68 237.32 -9999 -9999 -9999 -9999 -9999 -9999 -9999 -9999 -9999
-9999 -9999 -9999 -9999 -9999 -9999 -9999 147.72 147.69 147.58 147.49 147.41 147.32 147.15 147.32 147.8 147.85 147.94 147.97 147.75 147.37 147.12 146.84 146.54 146.38 146.24 146.14 146.26 146.52 146.82 147.12 147.31 147.35 147.14 146.94 146.86 146.8 146.73 146.69 146.69 146.69 146.74 146.84 146.83 146.77 146.74 146.77 146.75 146.68 146.4 146.3 146.32 146.09 145.65 145.69 145.81 145.86 145.96 145.93 145.96 146.19 146.33 146.35 146.33 146.3 146.2 146.09 146 145.94 145.88 145.72 145.49 145.3 145.12 144.97 144.78 144.51 144.27 144.05 143.83 143.62 143.38 143.15 142.9 142.67 142.53 142.38 142.24 142.03 141.47 139.97 139.39 139.39 139.38 139.36 139.22 139.03 138.84 138.64 138.42 138.21 138.05 137.86 137.64 137.38 137.1 136.5 136.18 136.01 135.87 135.73 135.59 135.41 135.2 135.34 135.29 135.23 135.15 135.09 135.01 134.93 134.92 134.85 134.5 134.41 134.35 134.28 134.22 134.02 133.72 133.48 133.39 133.39 133.37 133.6 133.98 133.99 134.03 134.13 133.67 133.12 133.4 133.77 134.29 134.64 134.85 135.31 135.64 135.82 136.23 136.89 137.32 137.61 137.9 138.16 138.19 138.11 138.01 137.75 136.47 135.16 134.01 132.78 131.22 129.84 128.87 128.56 128.56 128.59 128.47 127.91 127.82 127.83 127.88 128.11 127.82 126.06 125.57 125.57 125.57 125.58 126.07 127.71 128.37 128.72 129.85 131.52 132.63 132.65 132.66 132.57 131.51 130.46 130.51 130.8 131.05 131.16 131.06 130.91 130.83 130.76 130.72 130.72 130.6 130.56 130.56 130.54 130.53 130.52 130.61 130.6 130.49 130.57 130.72 130.76 130.65 130.49 130.51 130.71 130.86 130.87 130.94 131.09 131.18 131.22 131.29 131.41 131.43 130.76 128.17 125.84 125.3 125.3 125.3 125.3 125.3 125.3 125.3 125.3 125.3 125.3 125.3 125.3 125.3 125.31 125.31 125.31 125.31 125.31 125.31 125.31 125.31 125.31 125.31 125.31 125.31 125.31 125.31 125.31 125.32 125.32 125.32 125.32 125.32 125.32 125.32 125.32 125.32 125.32 125.32 125.32 125.32 125.33 125.33 125.33 125.33 125.33 125.33 125.33 125.33 125.33 125.33 125.33 125.33 125.33 125.34 125.99 128.8 130.12 130.11 130.08 130.19 130.02 129.84 129.58 129.61 129.72 129.52 129.04 128.98 129.4 129.72 129.98 130.15 130.26 130.31 129.07 126.26 125.38 125.35 125.35 125.35 125.35 125.35 125.35 125.35 125.35 125.35 125.35 125.36 125.36 125.36 125.36 125.53 128.93 132.21 134.71 143.49 152.13 159.51 166.07 170.38 172.86 174.79 176.01 177.07 177.97 178.63 179.28 179.84 180.11 180.33 180.49 180.67 180.72 180.77 180.81 180.6 180.3 180.21 180.29 180.33 178.16 177.96 181.19 182.54 181.68 178.96 178.15 180.48 181.42 181 182.19 183.37 183.39 183.78 185.34 187.22 188.47 189.9 191.66 193.59 195.39 197.32 199.76 202.86 206 209.16 211.55 213.94 216.6 219.49 222.65 226.02 229.04 231.69 233.78 235.6 237.15 238.64 240.04 -9999 -9999 -9999 -9999 -9999 -9999 -9999 -9999 -9999
-9999 -9999 -9999 -9999 -9999 -9999 -9999 147.77 147.7 147.59 147.44 147.37 147.27 147.17 147.02 147.15 147.17 147.05 146.95 146.79 146.7 146.77 146.77 146.68 146.86 147.07 147.27 147.4 147.44 147.43 147.46 147.49 147.45 147.27 147.17 147.12 147.03 146.94 146.92 146.88 146.8 146.52 146.59 146.6 146.83 146.84 146.82 146.77 146.64 146.4 146.22 146.41 146.44 145.89 145.95 146.12 146.35 146.54 146.6 146.69 146.83 146.87 146.85 146.79 146.77 146.62 146.41 146.36 146.36 146.33 146.17 145.93 145.74 145.61 145.47 145.26 144.97 144.72 144.51 144.3 144.04 143.76 143.53 143.27 143.05 142.87 142.69 142.51 142.22 141.73 140.25 139.44 139.42 139.37 139.27 139.09 138.92 138.75 138.58 138.42 138.25 138.06 137.88 137.69 137.42 137.09 136.53 136.16 136 135.85 135.75 135.6 135.54 135.31 135.16 135.2 135.17 135.12 135.02 134.92 134.79 134.65 134.61 134.45 134.35 134.29 134.22 134.15 134.01 133.78 133.56 133.49 133.48 133.46 133.5 133.83 133.99 134.12 134.19 133.62 133.33 133.59 133.85 134.25 134.58 134.9 135.48 135.84 135.91 136.27 136.85 137.34 137.68 138 138.29 138.38 138.22 138.05 137.56 136.05 134.53 133.32 132.03 130.66 129.47 128.78 128.58 128.55 128.52 128.33 127.86 127.83 127.84 127.88 128.17 127.66 125.9 125.57 125.57 125.57 125.57 126.25 127.88 128.58 129.01 130.4 131.93 132.67 132.64 132.68 132.29 131.28 130.55 130.59 130.82 131 131.09 130.94 130.74 130.61 130.57 130.61 130.63 130.57 130.58 130.59 130.55 130.53 130.53 130.63 130.6 130.48 130.46 130.54 130.65 130.5 130.25 130.41 130.83 131.16 131.03 131.02 131.1 131.15 131.24 131.33 131.44 131.35 130.13 127.24 125.49 125.3 125.3 125.3 125.3 125.3 125.3 125.3 125.3 125.3 125.3 125.3 125.3 125.3 125.3 125.3 125.31 125.31 125.31 125.31 125.31 125.31 125.31 125.31 125.31 125.31 125.31 125.31 125.31 125.32 125.32 125.32 125.32 125.32 125.32 125.32 125.32 125.32 125.32 125.32 125.32 125.32 125.32 125.32 125.33 125.33 125.33 125.33 125.33 125.33 125.33 125.33 125.33 125.33 125.33 125.41 127.03 129.77 130.21 130.39 130.37 130.24 129.96 129.74 129.53 129.63 129.47 129.08 128.84 129.14 129.53 129.75 130.02 130.25 130.32 130.26 128.11 125.73 125.35 125.35 125.35 125.35 125.35 125.35 125.35 125.35 125.35 125.35 125.35 125.35 125.35 125.36 125.36 125.78 129.64 132.42 135.79 145.15 153.92 160.95 167.11 171.04 173.04 174.59 175.71 176.74 177.71 178.42 179 179.61 180.04 180.44 180.74 181.02 181.17 181.37 181.53 181.44 181.12 181.06 181.23 181.46 180.08 178.46 181.41 183.49 183.04 180.84 179.33 180.56 182.29 182.94 183.99 184.61 184.49 185.15 186.73 188.58 190.29 192.23 194.57 196.99 198.91 200.57 202.56 205.1 208.34 211.98 214.96 217.48 220.03 222.63 225.72 229.37 232.7 234.96 236.83 238.39 239.83 241.11 242.22 -9999 -9999 -9999 -9999 -9999 -9999 -9999 -9999 -9999
-9999 -9999 -9999 -9999 -9999 -9999 -9999 147.99 147.98 147.97 147.88 147.82 147.75 147.75 147.85 148.07 148.02 147.86 147.77 147.67 147.61 147.61 147.57 147.45 147.53 147.52 147.45 147.46 147.56 147.61 147.63 147.57 147.47 147.38 147.31 147.25 147.19 147.14 147.13 147.06 146.81 145.93 145.8 145.98 146.74 146.76 146.66 146.58 146.51 146.51 146.6 146.92 147.25 147.11 147.16 147.24 147.36 147.43 147.44 147.56 147.68 147.74 147.58 147.26 147.38 147.1 146.69 146.67 146.75 146.73 146.58 146.36 146.14 145.98 145.8 145.6 145.35 145.13 144.96 144.75 144.47 144.22 144.01 143.77 143.53 143.27 143.13 143.08 142.67 142.11 140.63 139.44 139.4 139.36 139.22 139.06 138.89 138.73 138.57 138.42 138.27 138.08 137.86 137.65 137.43 137.07 136.58 136.13 135.98 135.85 135.76 135.61 135.51 135.43 135.1 135.05 135.1 135.05 134.93 134.87 134.76 134.56 134.47 134.47 134.42 134.34 134.27 134.18 134.05 133.84 133.64 133.6 133.57 133.56 133.61 133.73 134.22 134.5 134.1 133.47 133.48 133.78 134.22 134.54 134.63 135.09 135.7 136 136.03 136.3 136.85 137.46 137.84 138.15 138.46 138.55 138.3 138.12 137.35 135.47 133.87 132.58 131.15 130.01 129.15 128.72 128.59 128.52 128.45 128.2 127.84 127.84 127.86 127.87 128.2 127.39 125.76 125.56 125.56 125.57 125.57 126.39 128 128.67 129.43 130.89 132.22 132.68 132.7 132.63 132 131.13 130.62 130.65 130.84 130.99 131.02 130.84 130.6 130.46 130.44 130.53 130.55 130.54 130.56 130.56 130.53 130.53 130.6 130.74 130.66 130.48 130.3 130.29 130.41 130.3 130.11 130.4 130.84 131.27 131.18 131.18 131.16 131.08 131.24 131.31 131.32 131.13 129.24 126.43 125.34 125.3 125.3 125.3 125.3 125.3 125.3 125.3 125.3 125.3 125.3 125.3 125.3 125.3 125.3 125.3 125.3 125.3 125.3 125.31 125.31 125.31 125.31 125.31 125.31 125.31 125.31 125.31 125.31 125.31 125.32 125.32 125.32 125.32 125.32 125.32 125.32 125.32 125.32 125.32 125.32 125.32 125.32 125.32 125.32 125.32 125.33 125.33 125.33 125.33 125.33 125.33 125.33 125.33 125.33 125.68 128.19 130.03 130.21 130.35 130.29 130.02 129.78 129.65 129.55 129.58 129.13 128.77 128.9 129.33 129.6 129.81 130.04 130.25 130.35 130.02 127.04 125.46 125.34 125.34 125.35 125.35 125.35 125.35 125.35 125.35 125.35 125.35 125.35 125.35 125.35 125.35 125.35 126.22 130.35 132.81 137.51 147.38 155.81 162.06 167.5 171.01 172.99 174.4 175.24 175.98 176.95 177.83 178.41 179.02 179.67 180.26 180.7 181.09 181.36 181.71 182.03 182.11 181.88 181.86 182.05 182.38 181.93 179.38 181.29 184.35 184.51 183.21 181.39 180.96 182.68 184.47 185.28 185.27 185.2 186.15 187.95 189.6 191.7 194.23 196.83 199.56 202.3 204.62 206.65 208.58 210.88 214.51 218.55 221.83 224.65 227.13 229.84 233.09 235.97 237.86 239.35 240.57 241.82 243.11 244.58 -9999 -9999 -9999 -9999 -9999 -9999 -9999 -9999 -9999
-9999 -9999 -9999 -9999 -9999 -9999 -9999 148.52 148.62 148.7 148.7 148.58 148.59 148.64 148.74 148.77 148.54 148.34 148.23 148.13 148.02 147.85 147.69 147.61 147.77 147.84 147.85 147.85 147.88 147.86 147.78 147.71 147.64 147.57 147.5 147.44 147.37 147.3 147.24 147.19 147.18 146.66 146.39 146.58 147.18 147.26 147.22 147.28 147.44 147.59 147.7 147.8 147.88 147.83 147.94 148.09 148.09 148.04 147.96 148.06 148.1 148.21 148.34 147.81 147.95 147.66 147.07 146.95 147.05 147.06 146.96 146.8 146.58 146.39 146.08 145.87 145.63 145.44 145.26 145.07 144.87 144.72 144.58 144.43 144.19 143.95 143.91 143.83 143.34 142.65 141.14 139.56 139.4 139.31 139.18 139.03 138.87 138.72 138.57 138.42 138.27 138.11 137.84 137.63 137.41 137.08 136.66 136.22 136.04 135.89 135.77 135.62 135.48 135.43 135.2 134.94 134.91 134.91 134.83 134.73 134.65 134.53 134.48 134.49 134.46 134.42 134.4 134.32 134.15 133.94 133.77 133.71 133.63 133.62 133.74 133.85 134.29 134.34 133.93 133.34 133.59 133.98 134.45 134.61 134.69 135.23 135.59 135.83 136.05 136.43 136.94 137.57 137.99 138.33 138.65 138.63 138.32 138.2 137.34 134.91 133.25 132.06 130.63 129.68 128.94 128.64 128.53 128.45 128.37 128.09 127.8 127.82 127.85 127.86 128.17 127 125.64 125.56 125.56 125.56 125.56 126.6 128.18 128.72 129.83 131.35 132.42 132.51 132.6 132.46 131.65 130.88 130.61 130.7 130.85 130.99 130.97 130.75 130.49 130.36 130.4 130.52 130.55 130.55 130.55 130.53 130.52 130.55 130.67 130.78 130.67 130.44 130.21 130.2 130.23 130.14 130.09 130.31 130.67 131.02 131.1 131.07 130.98 131.03 131.22 131.32 131.28 130.94 128.4 125.87 125.3 125.29 125.29 125.3 125.3 125.3 125.3 125.3 125.3 125.3 125.3 125.3 125.3 125.3 125.3 125.3 125.3 125.3 125.3 125.3 125.3 125.3 125.31 125.31 125.31 125.31 125.31 125.31 125.31 125.31 125.31 125.31 125.32 125.32 125.32 125.32 125.32 125.32 125.32 125.32 125.32 125.32 125.32 125.32 125.32 125.32 125.32 125.32 125.33 125.33 125.33 125.33 125.33 125.33 125.34 126.31 129.17 130.1 130.14 130.08 129.92 129.68 129.62 129.58 129.55 129.32 128.83 128.7 129.11 129.51 129.69 129.88 130.03 130.24 130.41 129.56 126.21 125.36 125.34 125.34 125.34 125.34 125.35 125.35 125.35 125.35 125.35 125.35 125.35 125.35 125.35 125.35 125.35 126.84 130.97 133.39 139.89 149.75 157.34 163.22 168.3 170.96 172.74 173.81 174.26 174.81 175.63 176.5 177.3 178.13 178.93 179.71 180.38 180.91 181.33 181.83 182.26 182.55 182.49 182.53 182.81 183.21 183.4 180.81 181.05 185.07 186.11 185.76 184.35 182.69 183.56 185.71 186.62 186.69 186.59 188.24 191.17 191.79 192.89 194.98 197.72 200.76 203.89 207.17 210.42 213.25 215.36 218.32 222.48 226.57 229.9 232.27 234.58 236.85 238.84 240.32 241.39 242.32 243.55 245.17 247.12 -9999 -9999 -9999 -9999 -9999 -9999 -9999 -9999 -9999
-9999 -9999 -9999 -9999 -9999 -9999 -9999 149.49 149.56 149.59 149.55 149.43 149.4 149.4 149.34 149.04 148.83 148.63 148.47 148.4 148.42 148.45 148.44 148.41 148.36 148.27 148.18 148.11 148.1 148.07 147.97 147.89 147.8 147.71 147.65 147.6 147.54 147.52 147.48 147.51 147.71 148.07 148.13 148.1 148.2 148.23 148.21 148.25 148.34 148.44 148.47 148.45 148.33 148.24 148.47 148.15 147.72 147.57 147.48 147.51 147.52 147.67 148.41 148.32 148.27 148.06 147.55 147.26 147.36 147.42 147.36 147.3 147.08 146.86 146.38 146.04 145.8 145.64 145.48 145.31 145.18 145.09 145.03 144.96 144.83 144.77 144.76 144.5 143.93 143.18 141.71 139.74 139.36 139.21 139.13 139 138.85 138.71 138.57 138.42 138.27 138.1 137.86 137.62 137.41 137.13 136.75 136.37 136.13 135.94 135.76 135.63 135.52 135.46 135.31 135.04 134.79 134.75 134.71 134.65 134.55 134.5 134.46 134.49 134.48 134.45 134.42 134.35 134.2 134.03 133.88 133.81 133.71 133.65 133.75 133.9 134.14 134.15 133.79 133.33 133.7 134.16 134.55 134.59 134.8 135.4 135.63 135.84 136.12 136.55 137 137.62 138.12 138.52 138.78 138.63 138.33 138.26 137.5 134.53 132.84 131.88 130.41 129.58 128.96 128.63 128.48 128.41 128.32 128.08 127.88 127.87 127.86 127.86 128.1 126.71 125.59 125.55 125.55 125.56 125.58 126.8 128.33 128.94 130.24 131.74 132.52 132.34 132.59 132.19 131.2 130.66 130.64 130.75 130.85 130.97 130.91 130.67 130.41 130.32 130.41 130.57 130.58 130.58 130.56 130.54 130.56 130.62 130.72 130.77 130.61 130.34 130.19 130.19 130.16 130.08 130.1 130.25 130.62 131.02 131.01 130.89 130.86 131.04 131.2 131.24 131.2 130.79 127.89 125.6 125.29 125.29 125.29 125.29 125.29 125.29 125.3 125.3 125.3 125.3 125.3 125.3 125.3 125.3 125.3 125.3 125.3 125.3 125.3 125.3 125.3 125.3 125.3 125.3 125.31 125.31 125.31 125.31 125.31 125.31 125.31 125.31 125.31 125.31 125.32 125.32 125.32 125.32 125.32 125.32 125.32 125.32 125.32 125.32 125.32 125.32 125.32 125.32 125.32 125.32 125.32 125.33 125.33 125.33 125.42 127.32 129.75 130.04 130.02 129.83 129.64 129.55 129.5 129.45 129.4 128.94 128.64 128.86 129.38 129.64 129.77 129.93 130.06 130.28 130.43 128.9 125.75 125.34 125.34 125.34 125.34 125.34 125.34 125.34 125.35 125.35 125.35 125.35 125.35 125.35 125.35 125.35 125.36 127.34 131.57 134.27 142.55 152.32 159.59 165.18 168.84 170.4 171.6 172.41 172.8 173.24 174 174.83 175.56 176.53 177.63 178.97 180.08 180.69 181.31 181.78 182.29 182.69 182.8 183.01 183.42 183.96 184.45 182.56 181.13 185.09 187.53 187.85 187.09 184.99 185.29 187.37 189.22 189.43 189.73 192.64 196.23 196.67 196.52 196.95 198.6 201.32 204.61 208.04 212.32 216.7 219.93 223.08 226.98 231.15 234.65 236.8 238.47 239.92 241.37 242.29 243.14 244.27 245.77 247.63 249.76 -9999 -9999 -9999 -9999 -9999 -9999 -9999 -9999 -9999
-9999 -9999 -9999 -9999 -9999 -9999 -9999 150.29 150.23 150.16 150.1 150.05 149.96 149.89 149.77 149.36 149.25 149.18 149.12 149.07 148.99 148.88 148.77 148.68 148.58 148.49 148.4 148.3 148.26 148.23 148.14 148.08 148.04 147.99 148.01 148.14 148.26 148.35 148.38 148.48 148.65 148.83 148.84 148.59 148.48 148.68 148.77 148.93 149.06 149.08 148.97 148.85 148.68 148.63 148.51 147.42 146.93 146.88 146.88 146.92 146.98 147.13 147.97 148.65 148.49 148.3 148.06 147.58 147.64 147.75 147.63 147.67 147.51 147.28 146.69 146.17 145.9 145.77 145.6 145.42 145.32 145.22 145.17 145.21 145.27 145.36 145.32 144.98 144.38 143.65 142.26 139.98 139.34 139.16 139.04 138.94 138.81 138.67 138.53 138.39 138.25 138.11 137.91 137.64 137.38 137.13 136.81 136.48 136.18 135.97 135.77 135.63 135.56 135.5 135.36 135.18 134.97 134.71 134.59 134.63 134.57 134.5 134.45 134.47 134.47 134.44 134.41 134.34 134.24 134.1 133.95 133.87 133.82 133.77 133.76 133.91 134.17 134.07 133.59 133.36 133.81 134.32 134.59 134.58 135.06 135.59 135.71 135.95 136.27 136.68 137.07 137.67 138.3 138.72 138.83 138.53 138.33 138.31 137.83 135.26 133.22 131.99 130.33 129.51 129.07 128.69 128.32 128.17 128.17 128.17 128.16 128.16 128.07 128.05 128 126.38 125.56 125.55 125.55 125.55 125.61 127.11 128.49 129.23 130.67 132.06 132.52 132.36 132.57 131.8 130.74 130.67 130.7 130.77 130.86 130.93 130.83 130.6 130.36 130.31 130.45 130.6 130.59 130.59 130.57 130.56 130.65 130.74 130.79 130.76 130.53 130.24 130.15 130.15 130.12 130.09 130.13 130.32 130.75 131.11 131.05 131.01 131.05 131.19 131.2 131.21 131.13 130.18 126.9 125.39 125.29 125.29 125.29 125.29 125.29 125.29 125.29 125.29 125.3 125.3 125.3 125.3 125.3 125.3 125.3 125.3 125.3 125.3 125.3 125.3 125.3 125.3 125.3 125.3 125.3 125.3 125.3 125.31 125.31 125.31 125.31 125.31 125.31 125.31 125.31 125.31 125.31 125.32 125.32 125.32 125.32 125.32 125.32 125.32 125.32 125.32 125.32 125.32 125.32 125.32 125.32 125.32 125.32 125.33 125.74 128.54 129.96 130.04 129.93 129.66 129.51 129.53 129.41 129.33 129.08 128.64 128.64 129.12 129.58 129.79 129.86 130.04 130.16 130.31 130.32 128.1 125.52 125.34 125.34 125.34 125.34 125.34 125.34 125.34 125.34 125.34 125.35 125.35 125.35 125.35 125.35 125.35 125.41 128 132.02 135.49 145.08 154.41 161.01 165.7 168.06 169.12 169.88 170.55 171 171.52 172.31 173.2 174.02 174.98 176.3 178.11 179.47 180.25 181.27 181.72 182.12 182.62 182.97 183.35 183.85 184.5 185.16 184.27 181.9 184.21 188.31 189.2 188.97 187.24 187.29 189.27 192.22 192.79 193.03 195.45 199.11 201.54 202.34 202.42 202.71 203.55 205.55 208.35 212.73 217.84 222.73 227.24 231.37 235.12 237.77 239.55 240.95 242.21 243.25 243.98 244.91 246.37 248.06 249.99 252.19 -9999 -9999 -9999 -9999 -9999 -9999 -9999 -9999 -9999
-9999 -9999 -9999 -9999 -9999 -9999 -9999 150.7 150.56 150.7 150.82 150.49 150.3 150.2 150.04 149.66 149.62 149.56 149.44 149.33 149.21 149.09 148.97 148.86 148.76 148.68 148.61 148.53 148.5 148.54 148.62 148.74 148.8 148.91 149.06 149.15 149.12 149.05 148.97 149.04 149.25 149.49 149.57 149.13 148.69 148.88 149.01 149.19 149.36 149.36 149.24 149.17 149.06 148.95 148.24 147.42 147.41 147.49 147.47 147.36 147.23 147.17 147.61 148.7 148.75 148.63 148.52 147.84 147.8 147.93 147.78 147.78 147.73 147.59 146.98 146.27 146.01 145.88 145.7 145.48 145.29 145.14 145.12 145.21 145.26 145.37 145.48 145.27 144.75 144.07 142.84 140.35 139.34 139.14 138.98 138.86 138.75 138.61 138.47 138.34 138.22 138.16 137.98 137.66 137.37 137.11 136.83 136.54 136.22 136.01 135.81 135.64 135.57 135.54 135.44 135.25 135.08 134.92 134.69 134.46 134.5 134.52 134.46 134.44 134.42 134.39 134.35 134.26 134.17 134.09 133.98 133.92 133.91 133.89 133.84 133.86 133.93 133.85 133.39 133.42 134.1 134.52 134.57 134.58 135.2 135.63 135.8 136.03 136.44 136.76 137.14 137.72 138.42 138.77 138.74 138.39 138.32 138.33 138.2 137.08 134.74 132.09 130.05 129.38 129.04 128.43 127.58 127.3 127.45 127.79 128.14 128.41 128.45 128.42 127.82 126.07 125.55 125.55 125.55 125.55 125.71 127.55 128.68 129.65 131.13 132.31 132.48 132.51 132.44 131.37 130.51 130.71 130.71 130.76 130.84 130.84 130.73 130.51 130.33 130.32 130.49 130.61 130.6 130.6 130.57 130.59 130.7 130.84 130.86 130.74 130.45 130.19 130.14 130.1 130.13 130.15 130.22 130.45 130.88 131.12 131.1 131.17 131.29 131.35 131.22 131.15 131.01 129.43 126.22 125.31 125.29 125.29 125.29 125.29 125.29 125.29 125.29 125.29 125.29 125.29 125.29 125.3 125.3 125.3 125.3 125.3 125.3 125.3 125.3 125.3 125.3 125.3 125.3 125.3 125.3 125.3 125.3 125.3 125.3 125.31 125.31 125.31 125.31 125.31 125.31 125.31 125.31 125.31 125.31 125.32 125.32 125.32 125.32 125.32 125.32 125.32 125.32 125.32 125.32 125.32 125.32 125.32 125.32 125.32 126.49 129.45 130.02 130.02 129.81 129.59 129.48 129.39 129.32 129.11 128.68 128.56 128.9 129.33 129.68 129.9 130.04 130.22 130.23 130.34 130.04 127.29 125.41 125.34 125.34 125.34 125.34 125.34 125.34 125.34 125.34 125.34 125.34 125.34 125.34 125.35 125.35 125.35 125.56 128.88 132.44 136.91 146.95 155.81 160.89 164.11 166.12 167.22 167.91 168.47 168.99 169.62 170.47 171.43 172.46 173.69 175.37 177.27 178.57 179.49 180.72 181.51 181.84 182.44 183.05 183.54 184.09 184.77 185.53 185.59 183.3 183.31 188.3 190.19 190.43 189.43 189.08 190.54 193.57 195.54 196.09 197.07 200.12 203.79 206.54 208.1 208.79 208.99 209.85 211.29 214.32 219.29 224.94 230.37 234.74 237.68 239.52 241.24 242.54 243.55 244.5 245.47 246.71 248.33 249.93 251.8 254.14 -9999 -9999 -9999 -9999 -9999 -9999 -9999 -9999 -9999
-9999 -9999 -9999 -9999 -9999 -9999 -9999 151.2 150.94 151.22 151.35 150.77 150.49 150.44 150.28 149.83 149.81 149.76 149.64 149.53 149.42 149.32 149.23 149.19 149.17 149.18 149.21 149.24 149.38 149.55 149.68 149.69 149.56 149.5 149.59 149.71 149.64 149.17 149.19 149.46 149.74 149.94 150.1 150.04 149.51 149.33 149.32 149.52 149.7 149.76 149.85 150 149.77 149.37 148.65 148.79 149.3 149.42 149.33 149.02 148.5 147.9 147.6 148.5 149.04 149.16 149.01 148.09 147.86 148.04 147.94 147.88 147.85 147.78 147.27 146.48 146.22 146.04 145.77 145.44 145.16 145 144.96 145.12 145.25 145.32 145.49 145.37 144.94 144.31 143.43 140.8 139.36 139.12 138.95 138.79 138.67 138.55 138.42 138.29 138.2 138.19 138.02 137.73 137.42 137.1 136.82 136.6 136.32 136.07 135.89 135.71 135.62 135.58 135.49 135.32 135.14 134.98 134.84 134.63 134.34 134.35 134.41 134.39 134.37 134.34 134.3 134.18 134.08 134.03 133.95 133.93 133.93 133.93 133.9 133.83 133.74 133.59 133.21 133.52 134.27 134.58 134.53 134.6 135.01 135.41 135.7 136.03 136.56 136.84 137.29 137.78 138.31 138.64 138.53 138.26 138.26 138.14 138.14 137.94 135.58 131.64 129.63 129.34 128.92 127.8 126.57 126.32 126.35 126.57 127.28 128.07 128.49 128.53 127.58 125.85 125.54 125.54 125.54 125.54 125.92 127.92 128.88 130.08 131.58 132.47 132.44 132.62 132.23 131 130.53 130.68 130.66 130.71 130.77 130.72 130.58 130.41 130.29 130.35 130.52 130.6 130.61 130.6 130.6 130.62 130.68 130.85 130.9 130.71 130.36 130.17 130.11 130.08 130.17 130.23 130.31 130.54 130.85 131.1 131.18 131.3 131.45 131.35 131.16 131.06 130.69 128.26 125.76 125.29 125.29 125.29 125.29 125.29 125.29 125.29 125.29 125.29 125.29 125.29 125.29 125.29 125.29 125.29 125.3 125.3 125.3 125.3 125.3 125.3 125.3 125.3 125.3 125.3 125.3 125.3 125.3 125.3 125.3 125.3 125.3 125.31 125.31 125.31 125.31 125.31 125.31 125.31 125.31 125.31 125.31 125.31 125.32 125.32 125.32 125.32 125.32 125.32 125.32 125.32 125.32 125.32 125.32 125.34 127.47 129.83 130.02 129.97 129.71 129.55 129.44 129.28 129.04 128.69 128.5 128.81 129.2 129.53 129.83 130.02 130.18 130.27 130.27 130.31 129.56 126.68 125.36 125.33 125.33 125.34 125.34 125.34 125.34 125.34 125.34 125.34 125.34 125.34 125.34 125.34 125.34 125.34 125.79 129.65 132.79 137.68 147.89 156.04 159.58 161.74 163.61 164.89 165.73 166.24 166.61 167.13 168.02 169.13 170.75 172.61 174.6 176.43 177.65 178.66 179.83 180.84 181.43 182.13 182.86 183.48 184.06 184.77 185.56 186.21 184.93 183.27 187.45 190.73 191.67 191.51 191.13 191.66 194.33 197.05 198.96 200.35 202.22 205.31 208.85 211.78 213.89 214.8 215.81 217.02 219.21 223.12 228.21 233.21 236.95 239.06 240.6 242.15 243.41 244.3 245.33 246.65 248.07 249.51 250.89 252.68 254.96 -9999 -9999 -9999 -9999 -9999 -9999 -9999 -9999 -9999
-9999 -9999 -9999 -9999 -9999 -9999 152.37 151.85 151.63 151.5 151.44 151.23 150.85 150.92 150.85 150.25 150.22 150.1 150.03 150.01 149.97 149.93 149.95 150.08 150.21 150.34 150.41 150.36 150.28 150.19 150.44 150.41 149.88 149.87 150.33 151.09 150.89 149.6 149.59 149.99 150.16 150.26 150.55 150.88 150.53 150.28 150.39 150.75 151.09 151.35 151.57 151.72 151.08 150.04 149.54 150.33 150.97 151.09 151.04 150.84 150.35 149.49 148.39 148.32 149.24 149.65 149.41 148.37 147.93 148.02 147.99 147.96 147.94 147.89 147.54 146.78 146.54 146.29 145.82 145.31 145.03 144.9 144.83 144.97 145.12 145.2 145.29 145.2 144.86 144.47 143.93 141.27 139.44 139.09 138.91 138.75 138.6 138.48 138.38 138.25 138.16 138.15 138.1 137.86 137.5 137.1 136.8 136.63 136.44 136.15 135.96 135.79 135.69 135.61 135.51 135.34 135.19 135.05 134.9 134.72 134.53 134.19 134.25 134.32 134.32 134.3 134.26 134.14 134.05 134 133.92 133.92 133.93 133.96 133.92 133.85 133.77 133.55 133.2 133.7 134.31 134.51 134.53 134.78 135.06 135.38 135.54 135.9 136.56 136.85 137.45 137.9 138.19 138.4 138.28 138.14 137.92 137.22 137.04 136.72 133.97 130.56 129.38 129.24 128.69 127.36 126.31 126.19 126.15 126.13 126.44 127.33 128.18 128.42 127.03 125.64 125.54 125.54 125.54 125.54 126.33 128.3 129.18 130.54 131.97 132.52 132.45 132.64 131.94 130.74 130.63 130.58 130.6 130.66 130.69 130.59 130.43 130.3 130.26 130.37 130.53 130.59 130.63 130.62 130.62 130.63 130.65 130.76 130.83 130.61 130.26 130.15 130.04 130.05 130.22 130.35 130.47 130.63 130.85 131.14 131.28 131.3 131.34 131.23 131.06 130.91 129.79 126.77 125.4 125.28 125.28 125.28 125.29 125.29 125.29 125.29 125.29 125.29 125.29 125.29 125.29 125.29 125.29 125.29 125.29 125.29 125.3 125.3 125.3 125.3 125.3 125.3 125.3 125.3 125.3 125.3 125.3 125.3 125.3 125.3 125.3 125.3 125.3 125.3 125.31 125.31 125.31 125.31 125.31 125.31 125.31 125.31 125.31 125.31 125.31 125.32 125.32 125.32 125.32 125.32 125.32 125.32 125.32 125.55 128.59 129.99 129.97 129.84 129.61 129.48 129.41 129.22 128.77 128.47 128.76 129.11 129.41 129.78 130.06 130.13 130.16 130.23 130.29 130.17 129.01 126.25 125.34 125.33 125.33 125.33 125.33 125.33 125.33 125.34 125.34 125.34 125.34 125.34 125.34 125.34 125.34 125.34 126.17 130.33 133.1 138.3 148.27 155.56 158.38 159.89 161.36 162.66 163.43 163.63 163.7 164.25 165.49 167.27 169.47 171.58 173.71 175.57 176.88 177.99 179.2 180.21 181 181.71 182.43 183.15 183.79 184.5 185.27 186.03 186.08 184.09 186.27 190.54 192.27 193.36 194.18 194.39 196.2 198.38 200.5 202.53 204.65 207.55 211.23 214.75 217.57 219.49 221.17 222.77 224.99 228.21 232.39 236.08 238.49 239.96 241.35 242.7 243.87 244.74 245.84 247.28 248.71 249.88 251.05 252.72 254.75 -9999 -9999 -9999 -9999 -9999 -9999 -9999 -9999 -9999
-9999 -9999 -9999 -9999 -9999 -9999 153.08 152.5 152.4 151.91 152.05 152.3 151.49 151.59 151.63 151.04 151.12 150.97 150.94 151 151.05 151.1 151.14 151.16 151.17 151.22 151.25 151.08 150.96 150.96 151.3 151.19 150.54 150.61 151.03 151.55 151.55 150.42 150.43 150.53 150.46 150.54 151.04 151.53 151.63 151.86 152.16 152.47 152.68 152.8 152.86 152.85 152.16 150.79 150.29 151.2 151.65 151.69 151.68 151.64 151.46 151 149.89 148.65 149.09 149.85 149.5 148.61 148 147.98 147.98 148.01 148.01 147.97 147.78 147.14 146.96 146.62 146.02 145.41 145.02 144.82 144.74 144.83 144.88 144.91 144.91 144.78 144.55 144.34 144 141.63 139.59 139.14 138.92 138.71 138.53 138.4 138.35 138.23 138.16 138.18 138.19 137.98 137.57 137.12 136.8 136.62 136.5 136.22 136 135.84 135.73 135.63 135.52 135.34 135.23 135.09 134.93 134.78 134.67 134.41 134.04 134.11 134.23 134.21 134.2 134.11 134.04 133.97 133.95 133.96 133.95 133.96 133.93 133.86 133.76 133.47 133.33 133.91 134.39 134.45 134.62 135.06 135.36 135.63 135.66 135.87 136.59 136.94 137.57 137.98 138.11 138.16 138.05 137.92 137.17 135.91 135.32 134.31 131.66 129.71 129.22 129.16 128.67 127.57 126.62 126.33 126.21 126.15 126.2 126.66 127.78 128.23 126.62 125.56 125.53 125.53 125.53 125.54 126.8 128.55 129.55 131.02 132.27 132.5 132.51 132.56 131.57 130.56 130.61 130.53 130.57 130.64 130.62 130.49 130.34 130.24 130.26 130.41 130.55 130.6 130.65 130.66 130.68 130.66 130.7 130.72 130.73 130.47 130.16 130.07 129.95 130.03 130.24 130.4 130.56 130.76 130.96 131.19 131.32 131.29 131.2 131.06 130.93 130.57 128.41 125.89 125.3 125.28 125.28 125.28 125.28 125.28 125.28 125.29 125.29 125.29 125.29 125.29 125.29 125.29 125.29 125.29 125.29 125.29 125.29 125.29 125.29 125.3 125.3 125.3 125.3 125.3 125.3 125.3 125.3 125.3 125.3 125.3 125.3 125.3 125.3 125.3 125.3 125.3 125.31 125.31 125.31 125.31 125.31 125.31 125.31 125.31 125.31 125.31 125.31 125.31 125.32 125.32 125.32 125.32 125.32 126 129.38 130.01 129.9 129.74 129.53 129.37 129.23 128.94 128.61 128.64 129.01 129.29 129.62 129.96 130.16 130.11 130.1 130.22 130.28 130.03 128.59 125.96 125.33 125.33 125.33 125.33 125.33 125.33 125.33 125.33 125.34 125.34 125.34 125.34 125.34 125.34 125.34 125.34 126.82 131.07 133.3 138.84 148.71 155.34 157.7 158.84 159.84 160.76 161.01 160.65 160.68 161.79 163.94 166.39 168.56 170.61 172.77 174.69 176.23 177.49 178.74 179.8 180.63 181.33 182 182.74 183.42 184.04 184.57 185.17 185.96 185.13 185.4 189.52 192.28 194.75 196.43 197.32 198.49 200.11 201.97 204.04 206.45 209.56 213.43 217.05 220.18 222.93 225.32 227.52 229.99 232.69 235.57 237.86 239.49 240.68 241.84 242.94 244 245.01 246.04 247.41 248.67 249.62 250.71 252.23 253.94 -9999 -9999 -9999 -9999 -9999 -9999 -9999 -9999 -9999
-9999 -9999 -9999 -9999 -9999 -9999 153.69 153.09 153.01 152.7 152.89 153.04 152.28 152.3 152.3 151.97 152 151.92 151.8 151.7 151.69 151.79 151.89 152.02 152.15 152.28 152.34 152.16 151.85 151.91 151.95 151.66 151.42 151.57 151.61 151.69 151.73 151.25 151.01 150.88 150.84 151.14 151.74 152.2 152.71 152.93 153.1 153.24 153.28 153.24 153.17 153.09 152.66 151.44 150.82 151.53 151.87 151.87 151.87 151.84 151.78 151.65 151.12 149.7 148.82 149.58 149.4 148.8 148.11 148.02 147.99 148.03 148.04 148.03 147.92 147.43 147.19 146.81 146.24 145.64 145.23 144.95 144.66 144.77 144.66 144.5 144.37 144.19 143.89 143.54 143.21 141.67 139.75 139.22 138.97 138.72 138.48 138.34 138.32 138.23 138.18 138.25 138.24 138.02 137.59 137.14 136.81 136.58 136.47 136.26 136.04 135.86 135.73 135.61 135.48 135.32 135.24 135.12 134.96 134.81 134.69 134.6 134.39 134.02 134.06 134.09 134.1 134.06 133.99 133.92 133.96 134.04 134.01 133.97 133.95 133.85 133.71 133.43 133.54 134.2 134.44 134.42 134.8 135.32 135.6 135.72 135.73 136.1 136.71 137.09 137.65 137.98 138.01 137.96 137.87 137.37 136.24 135.22 134.53 132.71 130.35 129.25 128.93 128.92 128.7 128.26 127.72 127.23 126.88 126.55 126.38 126.36 127.03 127.79 126.28 125.54 125.53 125.53 125.53 125.6 127.49 128.79 129.91 131.46 132.46 132.47 132.59 132.41 131.2 130.47 130.55 130.53 130.6 130.66 130.6 130.44 130.3 130.23 130.31 130.47 130.56 130.6 130.66 130.68 130.71 130.73 130.77 130.71 130.62 130.32 130.08 129.97 129.92 130.09 130.31 130.49 130.66 130.88 131.11 131.17 131.3 131.39 131.29 131.02 130.83 129.99 127.38 125.49 125.28 125.28 125.28 125.28 125.28 125.28 125.28 125.28 125.28 125.28 125.29 125.29 125.29 125.29 125.29 125.29 125.29 125.29 125.29 125.29 125.29 125.29 125.29 125.3 125.3 125.3 125.3 125.3 125.3 125.3 125.3 125.3 125.3 125.3 125.3 125.3 125.3 125.3 125.3 125.3 125.31 125.31 125.31 125.31 125.31 125.31 125.31 125.31 125.31 125.31 125.31 125.31 125.32 125.32 125.33 126.8 129.83 129.98 129.9 129.71 129.41 129.18 128.9 128.66 128.63 128.9 129.13 129.46 129.83 130.06 130.08 130 130.09 130.24 130.32 129.99 128.27 125.8 125.33 125.33 125.33 125.33 125.33 125.33 125.33 125.33 125.33 125.33 125.34 125.34 125.34 125.34 125.34 125.38 127.49 131.57 133.57 139.76 149.54 155.38 157.33 158.09 158.68 158.79 158.21 157.46 158.15 160.54 163.13 165.54 167.75 169.84 171.88 173.78 175.46 176.8 178.03 179.18 180.11 180.91 181.62 182.36 183.04 183.24 183.15 183.48 184.55 185.47 185.25 188.21 191.86 194.71 196.92 198.75 200.29 201.84 203.56 205.59 208.12 211.06 214.77 218.47 221.91 225.11 228.09 230.63 232.98 235.1 237.02 238.72 240.08 240.99 241.87 242.79 243.77 244.93 245.94 247.05 248.01 248.82 249.93 251.29 252.57 -9999 -9999 -9999 -9999 -9999 -9999 -9999 -9999 -9999
-9999 -9999 -9999 -9999 -9999 -9999 154.35 153.9 153.82 153.64 153.37 153.11 152.87 152.75 152.61 152.5 152.42 152.35 152.25 152.23 152.3 152.41 152.52 152.8 153.04 153.18 153.31 153.26 152.97 153.04 153.08 152.73 152.53 152.4 152.19 152.18 152.25 151.97 151.44 151.31 151.54 152.05 152.42 152.5 153.06 153.18 153.25 153.31 153.32 153.26 153.19 153.11 152.88 151.98 151.28 151.6 151.98 152.01 152.01 151.98 151.93 151.82 151.62 150.83 149.15 148.95 149.34 149.03 148.28 148.01 147.99 148.01 148.03 148.01 147.89 147.55 147.23 146.91 146.62 146.43 146.33 146.1 145.09 144.4 144.32 143.98 143.81 143.59 143.22 142.77 142.32 141.42 139.85 139.28 139.02 138.75 138.48 138.33 138.3 138.24 138.19 138.26 138.24 138.03 137.6 137.15 136.8 136.53 136.42 136.25 136.03 135.85 135.7 135.56 135.4 135.29 135.22 135.13 135.01 134.86 134.71 134.63 134.48 134.18 133.9 133.95 133.98 134.01 133.96 133.93 133.98 134.03 134.01 133.96 133.95 133.86 133.68 133.43 133.7 134.37 134.4 134.44 134.93 135.41 135.69 135.68 135.78 136.34 136.71 137.02 137.51 137.84 137.86 137.75 137.65 136.52 135.18 134.38 133.93 132.22 129.83 128.85 128.51 128.38 128.35 128.42 128.44 128.39 128.22 127.88 127.53 127.1 126.76 126.87 125.86 125.52 125.53 125.53 125.53 125.85 128.07 129.04 130.31 131.87 132.53 132.47 132.65 132.17 130.89 130.47 130.51 130.57 130.65 130.71 130.62 130.44 130.31 130.27 130.39 130.53 130.58 130.61 130.65 130.68 130.66 130.67 130.67 130.62 130.44 130.14 130.01 129.93 129.97 130.23 130.45 130.64 130.78 130.9 131.09 131.07 131.14 131.24 131.22 130.95 130.7 129.31 126.49 125.32 125.28 125.28 125.28 125.28 125.28 125.28 125.28 125.28 125.28 125.28 125.28 125.28 125.28 125.29 125.29 125.29 125.29 125.29 125.29 125.29 125.29 125.29 125.29 125.29 125.29 125.29 125.3 125.3 125.3 125.3 125.3 125.3 125.3 125.3 125.3 125.3 125.3 125.3 125.3 125.3 125.3 125.3 125.3 125.31 125.31 125.31 125.31 125.31 125.31 125.31 125.31 125.31 125.31 125.31 125.53 128.23 130.03 129.92 129.84 129.56 129.16 128.83 128.57 128.6 128.84 129.17 129.35 129.67 129.94 130 129.9 129.92 130.12 130.32 130.43 130.04 128.03 125.66 125.33 125.33 125.33 125.33 125.33 125.33 125.33 125.33 125.33 125.33 125.33 125.33 125.33 125.34 125.34 125.48 128.27 132.02 134.02 141.14 149.88 154.59 156.48 157.04 157.04 156.08 155 154.71 156.77 159.76 162.07 164.16 166.53 168.78 170.77 172.62 174.26 175.61 176.9 178.16 179.27 180.26 181.07 181.85 182.34 181.7 180.77 181.04 182.74 184.88 185.43 186.78 190.72 193.74 196.43 199.04 201.25 203.06 204.89 207.02 209.56 212.23 215.43 219.18 222.86 226.41 229.39 231.9 234.33 236.41 237.89 239.17 240.12 240.77 241.46 242.35 243.32 244.48 245.46 246.38 247 247.68 248.74 249.87 250.7 -9999 -9999 -9999 -9999 -9999 -9999 -9999 -9999 -9999
-9999 -9999 -9999 -9999 -9999 -9999 155.17 154.75 154.42 154.1 153.73 153.33 153.02 152.93 152.91 152.95 153.02 152.99 152.91 152.92 152.99 153.04 153.1 153.41 153.78 154.03 154.19 154.22 154.13 154.3 154.31 154.18 154 153.47 153.09 153.09 153.22 152.66 151.96 151.91 152.46 153.05 153 152.55 153.03 153.17 153.23 153.29 153.32 153.27 153.2 153.13 153 152.48 151.8 151.68 152.03 152.12 152.13 152.1 152.03 151.91 151.76 151.42 150.08 148.69 149.35 149.43 148.53 148.06 148.01 148 147.98 147.93 147.79 147.53 147.23 147.04 146.9 146.77 146.61 146.43 145.55 144.26 144.08 143.55 143.28 143.06 142.7 142.21 141.69 141.09 139.85 139.32 139.06 138.78 138.49 138.32 138.28 138.23 138.19 138.22 138.18 137.94 137.53 137.13 136.76 136.49 136.38 136.2 135.94 135.77 135.66 135.53 135.38 135.26 135.16 135.05 134.94 134.82 134.73 134.63 134.42 134.07 133.78 133.96 133.96 133.98 133.97 133.99 134.02 134.01 133.97 133.91 133.91 133.81 133.66 133.46 133.77 134.39 134.34 134.48 134.93 135.38 135.71 135.72 136.01 136.49 136.69 136.89 137.25 137.58 137.65 137.56 137.39 135.79 134.13 132.82 132.01 130.65 129.32 128.65 128.34 128.16 128.14 128.27 128.24 128.37 128.56 128.55 128.36 128.14 127.81 126.73 125.63 125.52 125.52 125.52 125.53 126.46 128.44 129.32 130.74 132.19 132.54 132.5 132.68 131.86 130.71 130.57 130.55 130.64 130.73 130.77 130.63 130.46 130.34 130.34 130.48 130.58 130.59 130.61 130.63 130.66 130.63 130.56 130.52 130.44 130.19 129.96 129.95 129.96 130.12 130.39 130.65 130.82 130.88 130.94 131.16 131.12 131.02 131.01 130.97 130.87 130.51 128.43 125.75 125.28 125.28 125.28 125.28 125.28 125.28 125.28 125.28 125.28 125.28 125.28 125.28 125.28 125.28 125.28 125.28 125.28 125.29 125.29 125.29 125.29 125.29 125.29 125.29 125.29 125.29 125.29 125.29 125.29 125.29 125.3 125.3 125.3 125.3 125.3 125.3 125.3 125.3 125.3 125.3 125.3 125.3 125.3 125.3 125.3 125.3 125.3 125.31 125.31 125.31 125.31 125.31 125.31 125.31 125.31 126.12 129.46 130.06 129.88 129.69 129.33 128.86 128.55 128.47 128.74 129.05 129.33 129.59 129.82 129.83 129.76 129.73 129.88 130.13 130.33 130.41 129.91 127.74 125.51 125.33 125.33 125.33 125.33 125.33 125.33 125.33 125.33 125.33 125.33 125.33 125.33 125.33 125.33 125.33 125.65 129.08 132.37 134.85 142.4 148.95 152.04 153.72 154.34 153.91 152.35 151.72 152.87 155.36 158.05 160.18 162.19 164.71 167.04 168.98 170.81 172.46 173.85 175.3 176.7 178.01 179.24 180.23 180.97 180.87 179.3 178.03 178.89 181.4 183.86 185.31 185.86 188.39 191.83 195.41 198.64 201.48 203.84 206.1 208.5 211.09 213.66 216.39 219.85 223.46 227.12 230.13 232.76 235.16 237.1 238.25 238.96 239.58 240.23 240.93 241.82 242.81 243.8 244.68 245.4 245.85 246.41 247.31 248.17 248.65 -9999 -9999 -9999 -9999 -9999 -9999 -9999 -9999 -9999
-9999 -9999 -9999 -9999 -9999 -9999 155.61 154.98 154.45 154.1 153.84 153.7 153.61 153.59 153.59 153.59 153.67 153.82 153.83 153.79 153.83 153.89 153.88 154.07 154.53 154.91 155.09 155.2 155.29 155.47 155.38 155.35 155.22 154.62 154.33 154.31 154.32 153.53 152.9 152.91 153.54 154.04 153.63 152.68 152.96 153.16 153.22 153.28 153.32 153.28 153.21 153.14 153.07 152.85 152.29 151.89 152.05 152.17 152.19 152.17 152.1 151.96 151.82 151.62 150.81 149.02 149.41 149.85 148.76 148.1 148.01 147.98 147.94 147.85 147.68 147.38 147.09 146.93 146.8 146.68 146.53 146.41 145.79 144.55 143.85 143.16 142.89 142.74 142.42 141.87 141.33 140.85 139.75 139.27 138.99 138.74 138.48 138.3 138.26 138.22 138.16 138.12 138.03 137.77 137.43 137.09 136.79 136.5 136.37 136.16 135.83 135.68 135.59 135.46 135.32 135.2 135.11 134.98 134.83 134.74 134.7 134.56 134.27 133.95 133.67 133.92 133.95 133.96 133.97 134.01 134.01 133.99 133.94 133.87 133.83 133.73 133.61 133.44 133.74 134.34 134.29 134.48 134.86 135.26 135.62 135.87 136.36 136.74 136.86 136.94 137.13 137.38 137.41 137.4 136.98 135.2 133.22 131.53 130.4 129.68 129.07 128.48 128.23 128.13 128.19 128.57 128.35 128.37 128.47 128.41 128.16 127.98 127.96 127.07 125.66 125.52 125.52 125.52 125.59 127.31 128.67 129.66 131.18 132.39 132.5 132.57 132.62 131.49 130.64 130.66 130.63 130.71 130.81 130.81 130.63 130.48 130.39 130.45 130.57 130.61 130.6 130.61 130.6 130.59 130.55 130.47 130.4 130.24 129.98 129.86 129.9 130.01 130.26 130.56 130.81 130.94 130.91 130.94 131.17 131.27 131.2 131.08 130.93 130.8 130.06 127.33 125.38 125.28 125.28 125.28 125.28 125.28 125.28 125.28 125.28 125.28 125.28 125.28 125.28 125.28 125.28 125.28 125.28 125.28 125.28 125.28 125.28 125.29 125.29 125.29 125.29 125.29 125.29 125.29 125.29 125.29 125.29 125.29 125.29 125.3 125.3 125.3 125.3 125.3 125.3 125.3 125.3 125.3 125.3 125.3 125.3 125.3 125.3 125.3 125.3 125.3 125.31 125.31 125.31 125.31 125.31 125.35 127.06 129.99 130 129.75 129.45 129.06 128.57 128.43 128.61 128.93 129.15 129.38 129.72 129.78 129.6 129.58 129.59 129.8 130.14 130.34 130.32 129.65 127.17 125.37 125.32 125.32 125.33 125.33 125.33 125.33 125.33 125.33 125.33 125.33 125.33 125.33 125.33 125.33 125.33 126.06 130.12 132.62 135.81 142.76 146.56 147.95 149.14 150.05 149.82 148.49 148.93 150.82 153 155.31 157.35 159.47 162.13 164.51 166.39 168.25 169.95 171.39 172.96 174.58 176.05 177.49 178.68 179.23 178.46 176.49 175.77 177.5 180.11 182.26 184.28 185.59 186.1 188.27 193.16 197.57 200.86 203.97 207.04 209.99 212.74 215.21 217.83 220.94 224.34 227.86 230.96 233.62 235.64 237.12 237.93 238.32 238.81 239.47 240.24 241.09 242.03 242.91 243.54 243.99 244.47 245.01 245.78 246.42 246.63 -9999 -9999 -9999 -9999 -9999 -9999 -9999 -9999 -9999
-9999 -9999 -9999 -9999 -9999 -9999 155.81 155.17 154.8 154.64 154.52 154.5 154.42 154.27 154.23 154.22 154.45 154.81 154.91 154.85 154.85 154.88 154.84 154.91 155.29 155.78 156.03 156.15 156.3 156.46 156.4 156.41 156.34 155.89 155.72 155.64 155.31 154.48 153.94 153.98 154.52 154.91 154.29 152.93 152.89 153.14 153.2 153.26 153.31 153.29 153.23 153.16 153.09 152.98 152.65 152.19 152.06 152.17 152.21 152.17 152.12 151.98 151.84 151.65 151.14 149.44 149.34 149.77 148.82 148.15 148.01 147.94 147.85 147.71 147.5 147.21 146.95 146.82 146.71 146.63 146.55 146.48 146.02 144.53 143.45 142.86 142.65 142.53 142.22 141.65 141.11 140.65 139.55 138.97 138.73 138.52 138.36 138.25 138.22 138.17 138.06 137.97 137.86 137.65 137.39 137.12 136.93 136.58 136.34 136.16 135.77 135.61 135.5 135.38 135.27 135.17 135.03 134.89 134.73 134.66 134.63 134.47 134.11 133.86 133.6 133.88 133.95 133.94 133.96 134 133.99 133.97 133.9 133.8 133.74 133.64 133.47 133.3 133.68 134.27 134.28 134.49 134.79 135.1 135.49 136 136.54 136.91 137.01 136.99 137.05 137.21 137.21 137.14 136.21 134.41 132.34 130.91 130.03 129.44 128.85 128.39 128.16 128.15 128.26 128.89 128.69 129.37 129.19 128.38 128 127.81 127.82 126.95 125.63 125.51 125.51 125.52 125.9 128.02 128.9 130.06 131.61 132.5 132.46 132.65 132.43 131.12 130.63 130.69 130.69 130.76 130.85 130.8 130.62 130.5 130.47 130.56 130.63 130.63 130.61 130.6 130.56 130.51 130.44 130.33 130.26 130.07 129.87 129.87 129.97 130.14 130.4 130.69 130.92 131.01 130.96 130.91 130.95 131.09 131.22 131.12 130.92 130.71 129.53 126.46 125.29 125.28 125.28 125.28 125.28 125.28 125.28 125.28 125.28 125.28 125.28 125.28 125.28 125.28 125.28 125.28 125.28 125.28 125.28 125.28 125.28 125.28 125.28 125.28 125.29 125.29 125.29 125.29 125.29 125.29 125.29 125.29 125.29 125.29 125.29 125.29 125.3 125.3 125.3 125.3 125.3 125.3 125.3 125.3 125.3 125.3 125.3 125.3 125.3 125.3 125.3 125.3 125.3 125.31 125.31 125.51 128.06 130.08 129.88 129.47 129.08 128.71 128.4 128.48 128.78 129.02 129.22 129.46 129.68 129.57 129.38 129.38 129.46 129.77 130.23 130.44 130.3 129.31 126.27 125.32 125.32 125.32 125.32 125.32 125.32 125.33 125.33 125.33 125.33 125.33 125.33 125.33 125.33 125.33 125.33 126.56 131.01 132.85 136.46 141.45 142.9 143.2 143.77 144.67 145.06 144.49 145.65 147.66 149.86 152.07 153.98 156.21 158.99 161.47 163.41 165.18 166.79 168.14 169.82 171.7 173.25 174.67 175.89 176.3 175.42 173.59 173.87 176.1 178.21 180.15 182.57 185.16 185.95 186.35 189.74 195.8 199.72 203.24 206.98 210.67 214.02 216.88 219.68 222.64 225.85 228.98 231.84 234.22 235.74 236.65 237.23 237.58 237.93 238.49 239.23 240.08 240.88 241.6 242.14 242.48 242.87 243.48 244.4 244.71 244.73 -9999 -9999 -9999 -9999 -9999 -9999 -9999 -9999 -9999
-9999 -9999 -9999 -9999 -9999 -9999 156.57 155.8 155.33 155.08 154.89 154.84 154.8 154.77 154.87 155.01 155.34 155.86 156.05 155.99 155.92 155.9 155.85 155.81 156.01 156.49 156.89 157.1 157.27 157.41 157.39 157.41 157.31 157.03 156.83 156.59 156.15 155.58 155.16 155.1 155.47 155.74 154.98 153.33 152.87 153.11 153.19 153.25 153.31 153.31 153.25 153.17 153.09 153 152.82 152.42 152.07 152.12 152.16 152.13 152.08 151.99 151.84 151.64 151.24 149.82 149.32 149.56 148.74 148.2 148 147.89 147.73 147.54 147.31 147.06 146.96 146.89 146.8 146.73 146.64 146.59 146.23 144.58 143.22 142.65 142.46 142.29 141.93 141.38 140.87 140.45 139.39 138.63 138.5 138.35 138.27 138.2 138.15 138.07 137.93 137.8 137.69 137.54 137.34 137.14 137.01 136.65 136.29 136.15 135.74 135.51 135.39 135.27 135.18 135.07 134.95 134.81 134.66 134.57 134.54 134.39 133.99 133.78 133.53 133.79 133.99 133.91 133.9 133.93 133.92 133.89 133.82 133.72 133.66 133.56 133.37 133.21 133.61 134.2 134.21 134.33 134.65 135.01 135.44 135.94 136.41 136.73 136.85 136.88 136.95 137.03 137.02 136.52 135.25 133.44 131.49 130.36 129.66 129.07 128.61 128.33 128.12 128.22 128.24 128.32 129.05 129.93 130.61 128.85 127.98 127.79 127.84 126.67 125.56 125.51 125.51 125.55 126.73 128.51 129.19 130.55 132 132.53 132.46 132.7 132.08 130.81 130.65 130.66 130.69 130.78 130.87 130.78 130.61 130.54 130.56 130.65 130.66 130.63 130.61 130.56 130.5 130.43 130.32 130.19 130.1 129.96 129.85 129.93 130.02 130.22 130.54 130.84 131.04 131.04 130.93 130.85 130.99 131.19 131.2 131.08 130.88 130.56 128.73 125.83 125.27 125.27 125.28 125.28 125.28 125.28 125.28 125.28 125.28 125.28 125.28 125.28 125.28 125.28 125.28 125.28 125.28 125.28 125.28 125.28 125.28 125.28 125.28 125.28 125.28 125.28 125.29 125.29 125.29 125.29 125.29 125.29 125.29 125.29 125.29 125.29 125.29 125.29 125.29 125.3 125.3 125.3 125.3 125.3 125.3 125.3 125.3 125.3 125.3 125.3 125.3 125.3 125.3 125.3 125.31 125.94 128.96 130.03 129.67 129.09 128.64 128.4 128.39 128.58 128.86 129.1 129.36 129.49 129.44 129.36 129.12 129.19 129.52 129.9 130.19 130.39 130.31 128.62 125.54 125.32 125.32 125.32 125.32 125.32 125.32 125.32 125.32 125.32 125.32 125.33 125.33 125.33 125.33 125.33 125.44 127.53 131.64 132.76 134.85 137.29 138.75 139.53 139.81 140.54 141.07 141.2 142.18 143.49 145.48 148.07 150.42 152.9 155.65 158.22 160.29 161.93 163.3 164.6 166.51 168.52 170.03 171.32 172.41 172.8 172.17 170.75 171.8 173.98 175.91 178.04 180.63 183.9 185.84 186.04 187.18 192.95 198.16 202.03 206.08 210.17 214.16 217.91 221.32 224.44 227.43 230.12 232.59 234.49 235.63 236.19 236.36 236.49 236.78 237.24 237.9 238.69 239.4 239.93 240.45 240.92 241.25 241.86 242.82 243.01 243.13 -9999 -9999 -9999 -9999 -9999 -9999 -9999 -9999 -9999
-9999 -9999 -9999 -9999 -9999 -9999 157.22 156.3 155.74 155.49 155.28 155.19 155.18 155.32 155.61 155.97 156.34 156.94 157.19 157.16 157.05 156.96 156.9 156.83 156.92 157.32 157.8 158.07 158.2 158.23 158.15 158.11 158.12 157.97 157.77 157.54 157.24 156.82 156.47 156.3 156.44 156.6 155.76 153.87 152.94 153.08 153.18 153.24 153.3 153.32 153.26 153.18 153.11 153.04 152.89 152.47 152.03 152.04 152.1 152.15 152.17 152.15 152.04 152.05 152.06 150.94 149.62 149.49 148.78 148.28 148.01 147.83 147.67 147.48 147.2 146.96 147.01 147.02 146.94 146.82 146.63 146.43 145.94 144.56 143.21 142.59 142.35 142.02 141.6 141.08 140.61 140.28 139.38 138.46 138.51 138.51 138.34 138.13 138.03 137.9 137.76 137.62 137.49 137.38 137.21 137.05 136.91 136.6 136.24 136.15 135.74 135.45 135.31 135.18 135.08 134.98 134.87 134.75 134.61 134.49 134.43 134.3 133.91 133.74 133.47 133.51 133.9 133.85 133.84 133.85 133.85 133.83 133.76 133.67 133.62 133.54 133.44 133.37 133.73 134.15 134.01 134.19 134.64 135.02 135.48 135.86 136.28 136.5 136.61 136.71 136.82 136.86 136.8 135.67 134.22 132.36 130.78 129.94 129.33 128.74 128.44 128.23 128.13 128.65 128.36 128.61 130.22 129.82 128.9 128.23 127.93 127.79 127.76 126.16 125.51 125.51 125.51 125.74 127.62 128.71 129.58 131.06 132.31 132.51 132.52 132.66 131.64 130.65 130.65 130.61 130.68 130.79 130.86 130.76 130.64 130.6 130.63 130.69 130.67 130.62 130.58 130.5 130.46 130.35 130.22 130.1 130.01 129.93 129.87 130 130.09 130.34 130.68 130.95 131.05 130.93 130.8 130.81 131.21 131.35 131.21 131.01 130.83 130.25 127.74 125.46 125.27 125.27 125.27 125.27 125.27 125.28 125.28 125.28 125.28 125.28 125.28 125.28 125.28 125.28 125.28 125.28 125.28 125.28 125.28 125.28 125.28 125.28 125.28 125.28 125.28 125.28 125.28 125.28 125.28 125.29 125.29 125.29 125.29 125.29 125.29 125.29 125.29 125.29 125.29 125.29 125.29 125.3 125.3 125.3 125.3 125.3 125.3 125.3 125.3 125.3 125.3 125.3 125.3 125.3 125.38 126.94 129.64 129.9 129.33 128.69 128.33 128.29 128.43 128.58 128.97 129.2 129.41 129.4 129.24 129.16 129.01 129.38 129.82 130.06 130.15 130.17 129.97 127.53 125.34 125.32 125.32 125.32 125.32 125.32 125.32 125.32 125.32 125.32 125.32 125.32 125.32 125.32 125.33 125.34 125.83 128.29 131.89 132.31 132.85 134.1 136.2 138.54 139.79 140.7 141.11 141.56 142.19 142.42 142.85 144.14 146.48 149.57 152.35 154.99 157.16 158.71 159.96 161.45 163.62 165.56 166.94 168.11 169.02 169.35 168.87 167.91 169.36 171.56 173.76 176.17 178.65 181.55 184.71 185.96 186.25 189.15 196.07 200.59 204.77 209.04 213.44 217.9 222.13 225.78 228.8 231.17 233.21 234.58 235.32 235.5 235.04 234.79 235.22 235.79 236.37 236.98 237.6 238.07 238.58 239.13 239.62 240.3 241.16 241.55 241.91 -9999 -9999 -9999 -9999 -9999 -9999 -9999 -9999 -9999
-9999 -9999 -9999 -9999 -9999 -9999 157.72 156.76 156.15 155.94 155.78 155.65 155.72 156.12 156.56 157.03 157.48 158.12 158.46 158.44 158.24 158.08 158.08 158.11 158.15 158.33 158.48 158.62 158.75 158.78 158.78 158.8 158.93 158.9 158.75 158.55 158.34 158.03 157.75 157.55 157.49 157.49 156.59 154.56 153.15 153.06 153.16 153.23 153.29 153.32 153.28 153.2 153.12 153.06 152.95 152.35 151.98 152.16 152.43 152.68 152.88 153.09 153.28 153.43 153.37 152.03 150.04 149.55 148.93 148.31 148.05 147.87 147.69 147.44 147.08 146.86 146.93 146.85 146.55 146.07 145.54 145.04 144.57 143.99 143.29 142.7 142.29 141.83 141.41 140.95 140.46 140.12 139.41 138.47 138.8 138.67 138.28 138.02 137.87 137.72 137.57 137.45 137.32 137.2 137.06 136.9 136.71 136.42 136.2 136.14 135.76 135.39 135.26 135.12 135.02 134.91 134.79 134.66 134.52 134.42 134.32 134.15 133.81 133.7 133.65 133.27 133.72 133.84 133.81 133.86 134.02 134.03 133.74 133.57 133.59 133.57 133.47 133.49 133.94 134.01 133.83 134.37 134.84 135.16 135.57 135.91 136.33 136.54 136.6 136.6 136.67 136.74 136.46 134.89 133.18 131.42 130.09 129.41 129.03 128.56 128.34 128.11 128.01 128.36 128.29 129 130.38 130.92 129.1 128.01 127.83 127.91 127.28 125.72 125.5 125.5 125.51 126.23 128.27 128.91 130.06 131.54 132.48 132.45 132.6 132.47 131.18 130.58 130.61 130.57 130.65 130.77 130.81 130.74 130.68 130.65 130.68 130.71 130.66 130.6 130.52 130.4 130.4 130.22 130.09 130.05 129.98 129.93 129.94 130.07 130.17 130.47 130.82 131.02 130.97 130.76 130.68 130.84 131.31 131.45 131.22 130.99 130.79 129.88 126.94 125.32 125.27 125.27 125.27 125.27 125.27 125.27 125.27 125.27 125.28 125.28 125.28 125.28 125.28 125.28 125.28 125.28 125.28 125.28 125.28 125.28 125.28 125.28 125.28 125.28 125.28 125.28 125.28 125.28 125.28 125.28 125.28 125.28 125.29 125.29 125.29 125.29 125.29 125.29 125.29 125.29 125.29 125.29 125.29 125.29 125.3 125.3 125.3 125.3 125.3 125.3 125.3 125.3 125.3 125.3 125.6 128.03 129.87 129.6 128.81 128.33 128.26 128.32 128.46 128.74 129.18 129.22 129.25 129.19 129.05 129.02 129.37 129.94 130.13 130.22 130.29 130.23 129.43 126.46 125.32 125.32 125.32 125.32 125.32 125.32 125.32 125.32 125.32 125.32 125.32 125.32 125.32 125.32 125.32 125.37 126.35 129.46 132.25 132.62 133.8 135.94 138.55 140.76 142.14 143.01 143.44 143.99 144.52 144.67 144.28 143.55 143.91 146.39 149.11 151.81 154.01 155.58 157.14 158.99 161.16 162.85 164.04 165.05 165.79 165.99 165.6 165.25 167.2 169.47 171.74 174.15 176.76 179.54 182.61 185.45 185.93 186.77 191.86 198.13 203.24 207.69 212.33 217.19 222.02 226.37 229.78 232.09 233.67 234.35 234.57 234.23 233.18 232.76 233.41 234.14 234.71 235.16 235.66 236.11 236.66 237.3 238.04 238.91 239.82 240.44 240.98 -9999 -9999 -9999 -9999 -9999 -9999 -9999 -9999 -9999
-9999 -9999 -9999 -9999 -9999 -9999 158.22 157.23 156.65 156.48 156.39 156.19 156.46 157.17 157.66 158.2 158.73 159.4 159.87 159.86 159.59 159.27 159.02 158.87 158.78 158.82 158.94 159.19 159.4 159.46 159.51 159.54 159.72 159.79 159.68 159.49 159.32 159.15 158.99 158.79 158.62 158.47 157.46 155.34 153.52 153.06 153.15 153.22 153.28 153.32 153.28 153.21 153.14 153.08 152.82 152.15 152.38 153.15 153.65 153.95 154.07 154.03 153.93 153.79 153.56 152.54 150.51 149.56 148.69 148.23 147.97 147.8 147.78 147.66 147.18 146.81 146.52 145.87 145.13 144.58 144.18 143.93 143.74 143.62 143.39 142.74 142.15 141.65 141.21 140.7 140.18 139.76 139.3 138.62 138.94 138.52 138.09 137.91 137.73 137.56 137.41 137.26 137.12 136.98 136.84 136.68 136.58 136.51 136.24 136.1 135.78 135.34 135.18 135.04 134.93 134.82 134.7 134.56 134.44 134.32 134.17 133.93 133.71 133.66 133.65 133.26 133.57 133.75 133.71 133.82 134.16 134.06 133.53 133.38 133.47 133.5 133.4 133.58 134.04 133.78 133.85 134.65 135.01 135.37 135.68 135.96 136.36 136.67 136.72 136.63 136.56 136.59 135.92 134.21 132.29 130.65 129.59 129.24 128.75 128.43 128.24 128.07 128.04 128.19 128.32 128.43 128.99 130.02 128.8 127.91 127.79 127.95 126.41 125.53 125.5 125.5 125.59 127.01 128.74 129.28 130.59 131.95 132.54 132.4 132.66 132.13 130.77 130.51 130.55 130.55 130.63 130.73 130.75 130.72 130.7 130.68 130.71 130.71 130.63 130.56 130.42 130.26 130.19 130.03 129.93 129.91 129.91 129.89 130 130.15 130.34 130.66 130.96 131.01 130.8 130.62 130.62 130.82 131.28 131.32 131.12 130.95 130.67 129.12 126.25 125.28 125.27 125.27 125.27 125.27 125.27 125.27 125.27 125.27 125.27 125.27 125.28 125.28 125.28 125.28 125.28 125.28 125.28 125.28 125.28 125.28 125.28 125.28 125.28 125.28 125.28 125.28 125.28 125.28 125.28 125.28 125.28 125.28 125.28 125.28 125.29 125.29 125.29 125.29 125.29 125.29 125.29 125.29 125.29 125.29 125.29 125.29 125.29 125.3 125.3 125.3 125.3 125.3 125.3 125.31 126.11 128.89 129.67 128.98 128.3 128.17 128.37 128.43 128.69 129.02 129.13 129.04 128.95 128.81 129.03 129.47 130.04 130.2 130.27 130.44 130.39 130.28 128.79 125.85 125.31 125.32 125.32 125.32 125.32 125.32 125.32 125.32 125.32 125.32 125.32 125.32 125.32 125.32 125.32 125.39 126.85 130.38 132.54 134.09 136.87 139.47 141.52 142.97 144.11 144.98 145.6 146.2 146.79 147.28 147.28 146.48 145.39 145.26 146.36 148.39 150.06 151.98 154.65 156.89 158.75 160.14 161.16 162.04 162.68 162.83 162.58 162.89 165.04 167.18 169.31 171.93 174.73 177.66 180.79 184.33 185.71 186.31 188 193.47 201.23 206.35 211.18 216.27 221.45 226.24 230.04 232.29 233.48 233.51 233.25 232.46 231.17 230.83 231.55 232.25 232.8 233.26 233.68 234.12 234.76 235.6 236.51 237.47 238.33 239.21 240.26 -9999 -9999 -9999 -9999 -9999 -9999 -9999 -9999 -9999
-9999 -9999 -9999 -9999 -9999 -9999 158.71 157.7 157.22 157.13 157.03 156.96 157.38 158.21 158.85 159.45 160.15 160.75 161 160.91 160.57 160.15 159.83 159.64 159.54 159.46 159.54 159.83 160.11 160.24 160.29 160.27 160.4 160.54 160.54 160.38 160.29 160.19 160.11 159.95 159.76 159.55 158.42 156.19 154.05 153.12 153.14 153.2 153.27 153.32 153.3 153.23 153.16 153.1 152.58 152.15 153.42 154.34 154.47 154.41 154.27 154.09 153.94 153.79 153.57 152.87 151.02 149.74 148.71 148.36 148.08 147.87 148.01 147.97 147.37 146.78 145.95 144.58 143.99 143.78 143.7 143.66 143.6 143.55 143.45 142.71 141.8 141.09 140.57 140.05 139.63 139.29 139.04 138.69 138.65 138.32 138.06 137.85 137.64 137.46 137.3 137.13 136.93 136.74 136.47 136.18 136.09 136.35 136.19 136.03 135.79 135.34 135.16 135.04 134.95 134.91 134.87 134.84 134.82 134.77 134.69 134.31 133.7 133.59 133.58 133.24 133.42 133.6 133.59 133.77 134.04 133.78 133.34 133.3 133.36 133.5 133.34 133.8 134 133.66 134.09 134.78 135.13 135.55 135.78 136.02 136.34 136.68 136.77 136.64 136.47 136.38 135.18 133.28 131.41 130.05 129.33 129.01 128.48 128.32 128.13 128.06 128.13 128.31 128.39 128.35 128.31 128.32 128.03 127.81 127.9 127.32 125.73 125.5 125.5 125.5 125.95 127.93 129.03 129.73 131.1 132.25 132.47 132.43 132.62 131.68 130.48 130.51 130.51 130.54 130.63 130.72 130.73 130.73 130.72 130.71 130.71 130.66 130.55 130.44 130.27 130.11 130 129.9 129.85 129.84 129.84 129.84 130.07 130.3 130.63 130.9 131 130.86 130.63 130.53 130.67 130.87 131.02 131.1 131.04 130.9 130.44 128.2 125.79 125.27 125.27 125.27 125.27 125.27 125.27 125.27 125.27 125.27 125.27 125.27 125.27 125.27 125.27 125.28 125.28 125.28 125.28 125.28 125.28 125.28 125.28 125.28 125.28 125.28 125.28 125.28 125.28 125.28 125.28 125.28 125.28 125.28 125.28 125.28 125.28 125.28 125.29 125.29 125.29 125.29 125.29 125.29 125.29 125.29 125.29 125.29 125.29 125.29 125.29 125.3 125.3 125.3 125.3 125.36 126.92 129.31 129.13 128.35 128.1 128.29 128.61 128.72 128.89 128.87 128.78 128.69 128.72 128.93 129.7 130.11 130.15 130.19 130.25 130.39 130.47 130.29 128.01 125.53 125.31 125.31 125.31 125.31 125.32 125.32 125.32 125.32 125.32 125.32 125.32 125.32 125.32 125.32 125.32 125.42 127.36 130.99 132.8 135.87 139.73 141.8 143.26 144.49 145.63 146.61 147.46 148.3 149.1 149.66 149.9 149.86 149.28 147.83 146.7 146.76 147.17 148.48 151.53 153.88 155.66 156.97 158.06 159.06 159.76 160.02 159.89 160.52 162.57 164.57 166.63 169.36 172.29 175.5 178.81 182.54 185.14 185.85 187.23 190.62 198.63 205.05 209.99 215.28 220.64 225.72 229.78 231.72 232.33 232.04 231.42 230.42 229.25 229.06 229.65 230.19 230.68 231.19 231.56 232.03 232.84 233.89 234.87 235.86 236.64 237.69 239.38 -9999 -9999 -9999 -9999 -9999 -9999 -9999 -9999 -9999
-9999 -9999 -9999 -9999 -9999 -9999 159.1 158.21 157.88 157.83 157.68 157.85 158.4 159.54 160.23 160.64 161.21 161.62 161.8 161.76 161.53 161.17 160.85 160.63 160.45 160.28 160.29 160.51 160.78 160.95 160.98 160.91 160.95 161.15 161.36 161.33 161.34 161.21 161.11 161 160.89 160.69 159.37 157.03 154.71 153.27 153.13 153.19 153.26 153.32 153.31 153.25 153.18 153.11 152.56 152.42 154.07 154.62 154.58 154.46 154.31 154.13 153.98 153.82 153.62 153.15 151.57 150.08 149.24 148.73 148.31 147.87 147.96 147.93 147.33 146.67 145.73 144.11 143.63 143.59 143.62 143.64 143.6 143.54 143.45 142.77 141.55 140.55 139.99 139.58 139.27 139.04 138.86 138.64 138.44 138.26 138.06 137.84 137.63 137.43 137.26 137.06 136.79 136.51 135.68 135.07 135.02 136.02 136.05 135.94 135.84 135.57 135.56 135.57 135.57 135.56 135.55 135.51 135.48 135.43 135.37 134.94 133.77 133.53 133.51 133.14 133.37 133.5 133.5 133.61 133.67 133.5 133.35 133.35 133.35 133.49 133.47 133.98 133.86 133.86 134.43 134.84 135.31 135.7 135.94 136.13 136.3 136.54 136.65 136.48 136.38 135.93 134.12 132.2 130.57 129.55 129.14 128.72 128.39 128.25 128.07 128.03 128.15 128.31 128.34 128.3 128.2 128.02 127.85 127.86 127.78 126.23 125.52 125.49 125.49 125.53 126.75 128.66 129.27 130.21 131.56 132.43 132.36 132.56 132.42 131.18 130.36 130.53 130.5 130.55 130.66 130.75 130.77 130.77 130.75 130.73 130.7 130.58 130.42 130.26 130.07 129.98 129.91 129.88 129.84 129.83 129.84 129.89 130.2 130.47 130.8 130.97 130.9 130.69 130.51 130.51 130.7 130.92 130.99 131.02 131 130.87 130.13 127.43 125.52 125.27 125.27 125.27 125.27 125.27 125.27 125.27 125.27 125.27 125.27 125.27 125.27 125.27 125.27 125.27 125.27 125.28 125.28 125.28 125.28 125.28 125.28 125.28 125.28 125.28 125.28 125.28 125.28 125.28 125.28 125.28 125.28 125.28 125.28 125.28 125.28 125.28 125.28 125.28 125.28 125.29 125.29 125.29 125.29 125.29 125.29 125.29 125.29 125.29 125.29 125.29 125.29 125.29 125.3 125.53 127.79 129.18 128.52 128.06 128.19 128.59 128.85 128.93 128.75 128.64 128.67 128.68 129.2 129.88 130.14 130.1 130.14 130.16 130.18 130.34 130.54 130.16 127.16 125.38 125.31 125.31 125.31 125.31 125.31 125.31 125.31 125.31 125.32 125.32 125.32 125.32 125.32 125.32 125.32 125.5 127.87 131.52 133.32 137.79 141.59 143.22 144.59 145.92 147.18 148.38 149.58 150.83 151.89 152.45 152.69 152.75 152.59 151.98 150.67 149.38 148.83 148.16 148.95 150.28 151.87 153.08 154.36 155.85 156.83 157.32 157.17 157.85 159.72 161.68 163.59 166.13 169.25 172.84 176.5 180.35 183.97 185.23 186.64 189.94 196.52 203.71 208.68 214.08 219.54 224.8 229.06 230.73 230.86 230.41 229.59 228.51 227.45 227.32 227.72 228.06 228.48 228.95 229.26 229.87 230.91 232.1 233.1 234.05 235 236.37 238.12 -9999 -9999 -9999 -9999 -9999 -9999 -9999 -9999 -9999
-9999 -9999 -9999 -9999 -9999 -9999 159.52 158.86 158.66 158.69 158.48 158.83 159.5 160.6 161.16 161.66 162.27 162.68 162.8 162.72 162.51 162.23 161.91 161.62 161.33 161.15 161.11 161.24 161.47 161.55 161.53 161.48 161.52 161.78 162.12 162.28 162.3 162.19 162.09 162.04 162 161.77 160.22 157.8 155.41 153.52 153.12 153.18 153.25 153.32 153.32 153.25 153.17 153.08 152.65 152.63 154.3 154.73 154.64 154.5 154.35 154.19 154.04 153.86 153.68 153.35 152.06 150.42 149.94 149.21 148.49 147.85 147.69 147.42 146.89 146.43 145.7 144.15 143.55 143.54 143.58 143.59 143.56 143.52 143.44 142.94 141.53 140.41 139.82 139.52 139.22 139.01 138.83 138.66 138.47 138.28 138.11 137.87 137.63 137.4 137.22 136.98 136.66 136.36 135.33 134.65 134.64 135.68 135.87 135.8 135.7 135.73 135.77 135.76 135.74 135.72 135.68 135.62 135.57 135.53 135.46 135.13 133.79 133.46 133.36 133.12 133.46 133.49 133.49 133.48 133.42 133.38 133.37 133.43 133.5 133.63 133.8 133.98 133.78 134.23 134.64 134.99 135.5 135.82 136.07 136.23 136.33 136.43 136.43 136.3 136.23 135.16 133.08 131.35 129.97 129.2 128.93 128.56 128.35 128.13 128 128.04 128.16 128.24 128.24 128.19 128.04 127.89 127.84 127.95 127.02 125.63 125.49 125.49 125.49 125.79 127.82 129.01 129.54 130.71 131.95 132.48 132.33 132.65 132.08 130.71 130.41 130.51 130.52 130.59 130.71 130.8 130.85 130.84 130.78 130.74 130.64 130.44 130.23 130.05 129.92 129.91 129.91 129.9 129.87 129.86 129.9 130.08 130.34 130.6 130.82 130.89 130.78 130.59 130.49 130.54 130.6 130.79 131.09 131.06 130.97 130.83 129.64 126.82 125.39 125.26 125.27 125.27 125.27 125.27 125.27 125.27 125.27 125.27 125.27 125.27 125.27 125.27 125.27 125.27 125.27 125.27 125.27 125.27 125.28 125.28 125.28 125.28 125.28 125.28 125.28 125.28 125.28 125.28 125.28 125.28 125.28 125.28 125.28 125.28 125.28 125.28 125.28 125.28 125.28 125.28 125.28 125.29 125.29 125.29 125.29 125.29 125.29 125.29 125.29 125.29 125.29 125.29 125.29 125.92 128.42 128.74 128.16 128.1 128.44 128.83 128.93 128.73 128.65 128.81 129 129.47 129.98 130.14 130.02 130.08 130.17 130.17 130.28 130.46 130.63 129.81 126.48 125.32 125.31 125.31 125.31 125.31 125.31 125.31 125.31 125.31 125.31 125.31 125.31 125.32 125.32 125.32 125.32 125.63 128.52 131.98 134.2 139.57 142.94 144.45 145.92 147.42 148.88 150.45 152.12 153.82 155.12 155.71 155.93 155.87 155.53 155.06 154.33 153.39 152.41 151.11 150.19 150.14 150.53 151.04 151.68 153.02 154.03 154.38 154.15 154.82 156.44 158.21 160.02 162.44 165.78 169.79 173.93 177.87 181.99 184.58 185.61 189.54 195.85 202.19 207.08 212.46 217.95 223.23 227.72 229.51 229.31 228.76 227.86 226.74 225.7 225.47 225.71 225.92 226.24 226.62 226.9 227.76 228.97 230.15 231.04 232.2 233.53 235.08 236.73 -9999 -9999 -9999 -9999 -9999 -9999 -9999 -9999 -9999
-9999 -9999 -9999 -9999 -9999 -9999 160.05 159.66 159.56 159.6 159.42 159.78 160.6 161.74 162.31 162.81 163.37 163.71 163.74 163.59 163.36 163.1 162.77 162.42 162.12 162 161.96 162.04 162.18 162.11 162.04 162.04 162.15 162.52 162.97 163.31 163.2 163.22 163.09 163.08 162.98 162.65 161.04 158.54 156.14 153.96 153.14 153.18 153.24 153.3 153.3 153.21 153.11 152.96 152.62 152.85 154.5 154.91 154.69 154.51 154.38 154.26 154.1 153.92 153.74 153.47 152.48 150.77 150.32 149.4 148.39 147.77 147.34 146.95 146.56 146.15 145.55 144.32 143.48 143.46 143.5 143.51 143.5 143.5 143.45 143.13 141.6 140.44 139.76 139.49 139.27 139.08 138.93 138.76 138.51 138.3 138.17 137.9 137.64 137.4 137.2 136.94 136.58 136.23 135.45 134.71 134.61 135.33 135.63 135.66 135.53 135.68 135.73 135.71 135.71 135.71 135.68 135.61 135.56 135.5 135.42 135.05 133.71 133.43 133.25 133.15 133.41 133.41 133.28 133.29 133.34 133.46 133.56 133.66 133.8 133.9 133.96 133.85 133.78 134.39 134.67 135.16 135.61 135.86 136.16 136.33 136.46 136.51 136.35 136.2 135.88 134.14 132.15 130.6 129.53 129.02 128.77 128.55 128.35 128.08 127.97 128.07 128.16 128.16 128.12 128.03 127.89 127.82 127.97 127.64 126.13 125.49 125.49 125.49 125.52 126.66 128.57 129.19 129.91 131.2 132.25 132.43 132.43 132.62 131.63 130.36 130.5 130.49 130.55 130.62 130.74 130.83 130.87 130.84 130.74 130.64 130.47 130.22 130.02 129.89 129.87 129.9 129.93 129.94 129.9 129.94 130.03 130.29 130.43 130.65 130.78 130.78 130.69 130.56 130.48 130.54 130.43 130.58 131.28 131.19 130.95 130.77 129.01 126.3 125.32 125.26 125.26 125.26 125.26 125.27 125.27 125.27 125.27 125.27 125.27 125.27 125.27 125.27 125.27 125.27 125.27 125.27 125.27 125.27 125.27 125.27 125.27 125.28 125.28 125.28 125.27 125.27 125.27 125.28 125.28 125.28 125.28 125.28 125.28 125.28 125.28 125.28 125.28 125.28 125.28 125.28 125.28 125.28 125.28 125.29 125.29 125.29 125.29 125.29 125.29 125.29 125.29 125.29 125.3 126.61 128.65 128.38 128.09 128.29 128.72 128.94 128.76 128.5 128.79 129.13 129.66 129.96 130.01 129.95 129.98 130.18 130.11 130.19 130.4 130.52 130.63 129.16 125.94 125.31 125.31 125.31 125.31 125.31 125.31 125.31 125.31 125.31 125.31 125.31 125.31 125.31 125.31 125.31 125.32 125.8 129.23 132.31 135.11 140.66 143.93 145.57 147.28 149.04 150.78 152.72 154.82 156.83 158.27 158.99 159.34 159.22 158.67 158.03 157.11 156.06 155.12 154.27 153.74 153.91 154.54 154.98 154.69 153.63 153.37 153.81 154.71 155.48 155.62 156.32 157.2 159.2 162.67 166.75 171.25 175.41 179.59 183.39 184.46 187.7 194.52 200.22 204.99 210.19 215.56 220.78 225.44 227.86 227.63 226.9 225.96 224.89 223.96 223.66 223.75 223.85 224.06 224.28 224.67 225.62 226.79 227.71 228.48 230.27 231.9 233.48 235.29 -9999 -9999 -9999 -9999 -9999 -9999 -9999 -9999 -9999
-9999 -9999 -9999 -9999 -9999 -9999 160.79 160.56 160.49 160.42 160.27 160.54 161.43 162.66 163.27 163.78 164.26 164.5 164.48 164.31 164.06 163.79 163.46 163.12 162.88 162.83 162.79 162.81 162.77 162.61 162.57 162.65 162.84 163.25 163.68 164.02 164.03 164.21 164.1 164.05 163.81 163.39 161.93 159.41 156.98 154.77 153.58 153.53 153.57 153.6 153.55 153.46 153.37 153.23 153.21 153.78 154.99 155.15 154.79 154.52 154.4 154.28 154.12 153.95 153.77 153.55 152.82 151.16 150.45 149.17 147.96 147.52 147.12 146.72 146.3 145.85 145.32 144.49 143.44 143.34 143.4 143.42 143.43 143.46 143.45 143.27 141.75 140.49 139.8 139.54 139.38 139.21 139.07 138.88 138.6 138.37 138.24 137.98 137.71 137.47 137.22 136.95 136.57 136.14 135.56 135.01 134.91 135.43 135.47 135.47 135.36 135.5 135.63 135.64 135.65 135.63 135.6 135.52 135.45 135.34 135.2 134.65 133.5 133.42 133.01 133.08 133.25 133.33 133.36 133.53 133.59 133.71 133.81 133.86 133.93 133.94 133.89 133.73 133.89 134.45 134.72 135.28 135.67 136.05 136.39 136.47 136.51 136.44 136.17 136.04 135.15 133.07 131.34 130.01 129.18 128.86 128.71 128.54 128.25 127.98 127.98 128.09 128.12 128.07 127.99 127.87 127.81 127.91 127.97 126.65 125.62 125.48 125.49 125.49 125.87 127.82 128.83 129.38 130.33 131.66 132.43 132.37 132.6 132.41 131.13 130.23 130.51 130.48 130.54 130.61 130.72 130.78 130.78 130.7 130.56 130.42 130.21 129.99 129.88 129.81 129.84 129.86 129.94 130.03 130.02 130.11 130.26 130.47 130.51 130.67 130.74 130.74 130.67 130.6 130.56 130.5 130.41 130.75 131.35 131.14 130.89 130.65 128.28 125.89 125.28 125.26 125.26 125.26 125.26 125.26 125.26 125.26 125.27 125.27 125.27 125.27 125.27 125.27 125.27 125.27 125.27 125.27 125.27 125.27 125.27 125.27 125.27 125.27 125.27 125.27 125.27 125.27 125.27 125.27 125.27 125.27 125.28 125.28 125.28 125.28 125.28 125.28 125.28 125.28 125.28 125.28 125.28 125.28 125.28 125.28 125.28 125.28 125.29 125.29 125.29 125.29 125.29 125.29 125.37 127.44 128.64 128.24 128.18 128.55 128.89 128.89 128.49 128.67 129.14 129.66 129.96 129.98 129.9 129.88 129.97 130.07 130.11 130.26 130.41 130.53 130.69 128.47 125.58 125.31 125.31 125.31 125.31 125.31 125.31 125.31 125.31 125.31 125.31 125.31 125.31 125.31 125.31 125.31 125.32 126.14 129.96 132.54 136.32 141.72 144.85 146.73 148.71 150.7 152.71 154.95 157.3 159.41 160.89 161.85 162.42 162.36 161.82 161.11 159.99 158.75 157.58 156.85 157.16 157.93 158.67 158.99 158.91 158.26 157.91 157.97 157.91 157.84 157.59 157.79 158.86 158.28 160.29 164.05 168.54 172.85 177.02 181.5 183.44 185.31 191.46 197.63 202.41 207.37 212.47 217.4 221.88 224.93 225.49 225.04 224.13 223.18 222.51 222.25 222.13 222 221.8 221.75 222.5 223.42 224.26 224.6 225.55 227.84 229.74 231.59 233.69 -9999 -9999 -9999 -9999 -9999 -9999 -9999 -9999 -9999
-9999 -9999 -9999 -9999 -9999 -9999 161.74 161.45 161.35 161.3 161.13 161.2 161.9 163.29 163.95 164.33 164.79 165.06 165.1 164.97 164.72 164.43 164.1 163.78 163.61 163.57 163.52 163.45 163.3 163.2 163.26 163.41 163.64 163.99 164.31 164.63 164.87 165.09 165.07 164.87 164.52 164.1 162.84 160.47 158.17 156.23 155.16 155.03 155.11 155.19 155.23 155.24 155.24 155.21 155.31 155.57 155.86 155.45 154.95 154.55 154.39 154.26 154.12 153.98 153.82 153.62 153.09 151.55 150.53 148.98 147.74 147.4 147.08 146.61 146.08 145.59 145.12 144.56 143.49 143.25 143.29 143.31 143.34 143.38 143.4 143.3 141.98 140.6 139.95 139.72 139.57 139.41 139.22 139.03 138.78 138.55 138.37 138.15 137.91 137.67 137.34 137.05 136.6 136.15 135.91 135.69 135.58 135.41 135.02 135.23 135.28 135.04 135.04 134.92 134.79 134.66 134.56 134.43 134.33 134.23 134.11 133.74 133.32 133.24 132.82 133.3 133.32 133.36 133.63 133.83 133.86 134 134.03 133.94 133.88 133.87 133.8 133.68 134.11 134.58 134.89 135.4 135.75 136.25 136.52 136.55 136.61 136.32 136 135.53 133.91 132.08 130.61 129.51 128.94 128.77 128.67 128.39 128.05 127.89 127.98 128.06 128.03 127.96 127.86 127.81 127.89 128.18 127.29 125.8 125.49 125.48 125.48 125.7 127.1 128.6 129.01 129.63 130.81 132.06 132.48 132.42 132.69 132.04 130.68 130.3 130.43 130.44 130.47 130.54 130.61 130.62 130.56 130.43 130.3 130.16 129.97 129.85 129.79 129.79 129.84 129.86 129.97 130.15 130.25 130.36 130.57 130.64 130.6 130.68 130.75 130.72 130.66 130.6 130.54 130.41 130.68 131.22 131.35 131.05 130.84 130.36 127.48 125.58 125.27 125.26 125.26 125.26 125.26 125.26 125.26 125.26 125.26 125.26 125.26 125.27 125.27 125.27 125.27 125.27 125.27 125.27 125.27 125.27 125.27 125.27 125.27 125.27 125.27 125.27 125.27 125.27 125.27 125.27 125.27 125.27 125.27 125.27 125.28 125.28 125.28 125.28 125.28 125.28 125.28 125.28 125.28 125.28 125.28 125.28 125.28 125.28 125.28 125.28 125.29 125.29 125.29 125.29 125.64 128.16 128.59 128.29 128.42 128.74 128.85 128.6 128.4 129.01 129.51 129.95 130.03 129.94 129.85 129.88 129.93 129.99 130.18 130.33 130.48 130.58 130.44 127.7 125.41 125.3 125.31 125.31 125.31 125.31 125.31 125.31 125.31 125.31 125.31 125.31 125.31 125.31 125.31 125.31 125.33 126.66 130.67 132.84 138.05 143.22 146.04 148.23 150.34 152.36 154.58 157 159.36 161.35 162.84 164.03 164.84 165 164.65 164 162.85 161.57 160.05 159.5 161.14 162.63 162.96 162.81 162.69 162.26 161.96 161.55 160.8 160.01 159.42 159.11 160.25 159.87 159.07 160.7 165.49 170.21 174.49 178.76 182 183.54 187.87 194.52 199.39 204.08 208.79 213.27 217.27 220.42 222.17 222.85 222.65 222.16 221.68 221.3 220.83 220 218.56 218.21 219.78 220.72 221.1 221.09 222.66 225.16 227.35 229.35 231.41 -9999 -9999 -9999 -9999 -9999 -9999 -9999 -9999 -9999
-9999 -9999 -9999 -9999 -9999 -9999 162.59 162.27 162.25 162.23 162 161.97 162.4 163.72 164.39 164.67 165.12 165.45 165.58 165.51 165.29 164.98 164.65 164.39 164.3 164.27 164.21 164.14 164.07 164.12 164.25 164.36 164.54 164.75 164.95 165.25 165.52 165.71 165.76 165.5 165.14 164.74 163.77 161.81 159.81 158.31 157.65 157.54 157.59 157.63 157.59 157.48 157.36 157.25 157.17 157.03 156.6 155.83 155.2 154.61 154.42 154.3 154.16 154.02 153.87 153.68 153.29 151.94 150.69 148.96 147.64 147.35 147.14 146.67 146.06 145.51 145.02 144.53 143.58 143.2 143.23 143.2 143.22 143.23 143.2 143.04 142.04 140.79 140.21 139.98 139.8 139.68 139.47 139.28 139.1 138.9 138.67 138.47 138.23 137.93 137.59 137.14 136.64 136.32 135.96 135.57 135.25 134.98 134.71 134.97 135.25 134.42 134.02 133.84 133.75 133.67 133.56 133.49 133.4 133.3 133.24 133.13 133.25 133.04 133.18 133.54 133.43 133.47 133.8 133.91 133.97 134.15 134.2 134.04 133.88 133.87 133.85 133.78 134.25 134.68 135.15 135.59 135.93 136.34 136.52 136.59 136.58 136.09 135.88 134.97 133.04 131.3 129.95 129.05 128.79 128.72 128.56 128.18 127.9 127.89 127.99 128 127.93 127.86 127.81 127.89 128.13 127.96 126.18 125.51 125.47 125.48 125.63 126.86 128.48 128.98 129.29 129.97 131.34 132.35 132.45 132.55 132.61 131.53 130.37 130.35 130.3 130.32 130.31 130.35 130.37 130.33 130.24 130.11 130.03 129.94 129.81 129.76 129.73 129.77 129.87 129.97 130.13 130.35 130.51 130.64 130.81 130.81 130.75 130.8 130.81 130.77 130.72 130.6 130.46 130.37 131.04 131.58 131.3 130.98 130.8 130.02 126.97 125.44 125.26 125.26 125.26 125.26 125.26 125.26 125.26 125.26 125.26 125.26 125.26 125.26 125.26 125.26 125.27 125.27 125.27 125.27 125.27 125.27 125.27 125.27 125.27 125.27 125.27 125.27 125.27 125.27 125.27 125.27 125.27 125.27 125.27 125.27 125.27 125.27 125.28 125.28 125.28 125.28 125.28 125.28 125.28 125.28 125.28 125.28 125.28 125.28 125.28 125.28 125.28 125.28 125.29 125.29 126.25 128.64 128.59 128.43 128.7 128.79 128.65 128.28 128.69 129.38 129.78 129.95 130 129.9 129.79 129.83 129.9 130.06 130.28 130.44 130.56 130.54 130.3 127.43 125.37 125.3 125.3 125.3 125.3 125.3 125.3 125.3 125.3 125.31 125.31 125.31 125.31 125.31 125.31 125.31 125.39 127.34 131.29 133.5 140.15 144.9 147.49 149.92 152.2 154.18 156.36 158.77 160.97 162.76 164.19 165.49 166.5 166.9 166.89 166.52 165.64 164.28 162.53 162.11 164.35 166.76 167.15 166.62 166.5 166.04 165.52 164.99 163.92 162.52 161.36 160.87 161.05 161.48 161.22 160.39 162.64 167.23 171.38 175.3 179.8 182.49 185.11 191.2 195.99 200.43 204.65 208.57 212.05 214.98 217.3 218.95 219.92 220.4 220.33 219.94 219.01 217.01 214.08 213.74 216.11 217.16 217.27 217.69 219.43 221.99 224.18 226.09 228.01 -9999 -9999 -9999 -9999 -9999 -9999 -9999 -9999 -9999
-9999 -9999 -9999 -9999 -9999 -9999 163.25 163.01 163.09 163.05 162.84 162.89 163.1 164.15 164.7 164.9 165.29 165.67 165.9 165.96 165.83 165.52 165.23 165.11 165.08 165.04 165.04 164.99 164.99 165.05 165.08 165.1 165.23 165.37 165.53 165.72 165.9 166.06 166.14 165.98 165.71 165.38 164.74 163.34 161.73 160.6 160.09 159.96 159.89 159.73 159.42 159.06 158.73 158.38 158.05 157.65 157.02 156.18 155.5 154.73 154.47 154.34 154.2 154.05 153.9 153.74 153.44 152.29 150.94 149.13 147.63 147.35 147.22 146.84 146.18 145.58 145.09 144.68 143.87 143.27 143.17 143.11 143 142.79 142.52 142.23 141.68 140.96 140.5 140.28 140.09 140.04 139.87 139.7 139.55 139.3 139.02 138.71 138.43 138.06 137.73 137.33 136.84 136.37 135.99 135.69 135.44 135.21 134.83 134.86 135.27 134.8 134.31 134.19 134.4 134.33 134.03 133.84 133.7 133.26 133.11 133.17 133.2 132.99 133.57 133.69 133.52 133.57 133.83 133.94 134.02 134.12 134.18 134.01 133.85 133.96 134.14 134.1 134.34 134.95 135.51 135.86 136.16 136.45 136.51 136.58 136.27 135.82 135.77 135.28 133.01 130.87 129.47 128.84 128.75 128.59 128.29 127.94 127.82 127.91 127.96 127.9 127.85 127.82 127.88 128.09 128.14 126.71 125.59 125.47 125.47 125.5 126.33 128.28 129.04 129.22 129.56 130.42 131.84 132.5 132.45 132.68 132.35 130.96 130.17 130.23 130.1 130.07 130.03 130.03 130.02 129.98 129.9 129.82 129.79 129.74 129.67 129.66 129.66 129.76 129.87 130.09 130.32 130.59 130.77 130.87 131 130.93 130.89 130.91 130.91 130.87 130.77 130.59 130.43 130.47 131.32 131.68 131.21 130.92 130.71 129.31 126.51 125.37 125.26 125.26 125.26 125.26 125.26 125.26 125.26 125.26 125.26 125.26 125.26 125.26 125.26 125.26 125.26 125.26 125.27 125.27 125.27 125.27 125.27 125.27 125.27 125.27 125.27 125.27 125.27 125.27 125.27 125.27 125.27 125.27 125.27 125.27 125.27 125.27 125.27 125.27 125.27 125.28 125.28 125.28 125.28 125.28 125.28 125.28 125.28 125.28 125.28 125.28 125.28 125.28 125.28 125.36 127.17 128.89 128.67 128.64 128.86 128.7 128.41 128.34 129.18 129.77 129.95 129.91 129.88 129.8 129.74 129.81 129.91 130.13 130.35 130.55 130.61 130.5 130.22 127.33 125.37 125.3 125.3 125.3 125.3 125.3 125.3 125.3 125.3 125.3 125.3 125.3 125.3 125.3 125.31 125.31 125.52 128.12 131.77 134.95 142.42 146.49 148.94 151.42 153.95 156.05 158.03 160.24 162.22 163.92 165.34 166.67 167.8 168.45 168.71 168.61 168.12 166.93 165.19 165.12 167.29 169.63 170.6 170.16 170.08 169.69 169.21 168.66 167.24 165.4 163.61 162.46 162.28 162.39 162.77 162.43 162.09 164.8 168.27 172.17 177.18 181.52 183.4 187.75 192.27 196.34 200.09 203.52 206.54 209.16 211.41 213.25 214.79 215.96 216.51 216.57 215.69 213.04 209.66 209.71 212.04 213.07 213.37 213.84 215.71 218.22 220.2 221.92 223.76 -9999 -9999 -9999 -9999 -9999 -9999 -9999 -9999 -9999
-9999 -9999 -9999 -9999 -9999 -9999 163.88 163.66 163.8 163.84 163.72 163.85 164.02 164.7 165.01 165.2 165.57 165.96 166.31 166.54 166.47 166.17 165.99 165.88 165.75 165.61 165.54 165.51 165.6 165.67 165.63 165.67 165.82 165.99 166.15 166.25 166.34 166.45 166.49 166.37 166.15 165.85 165.44 164.67 163.56 162.66 162.19 161.92 161.48 160.93 160.4 159.97 159.5 158.98 158.53 158.01 157.31 156.48 155.83 154.89 154.51 154.37 154.23 154.08 153.91 153.77 153.56 152.58 151.22 149.49 147.74 147.39 147.25 147 146.4 145.86 145.4 144.94 144.29 143.57 143.17 142.97 142.65 142.24 141.85 141.54 141.28 141.02 140.75 140.65 140.47 140.37 140.24 140.03 139.7 139.33 139.1 138.84 138.6 138.2 137.81 137.34 136.9 136.52 136.14 135.85 135.65 135.46 135.12 134.92 135.21 135.07 134.86 134.91 135.04 134.91 134.75 134.66 134.5 133.64 133.23 133.37 133.04 133.05 133.74 133.75 133.6 133.65 133.81 133.95 134.02 134.02 134.01 133.86 133.81 134.13 134.4 134.4 134.56 135.33 135.8 136.15 136.36 136.46 136.39 136.23 135.84 135.67 135.59 135.13 134.21 132.39 129.76 128.81 128.71 128.42 128.02 127.78 127.81 127.89 127.87 127.83 127.8 127.84 128.02 128.19 127.26 125.73 125.47 125.47 125.47 125.77 127.64 129.01 129.13 129.41 129.82 130.95 132.25 132.53 132.5 132.7 131.88 130.41 129.94 129.9 129.79 129.73 129.7 129.71 129.71 129.68 129.62 129.59 129.57 129.52 129.52 129.54 129.6 129.85 130.02 130.27 130.56 130.82 130.92 130.98 131.04 130.93 130.94 130.98 130.95 130.92 130.73 130.53 130.4 130.65 131.33 131.49 131.09 130.86 130.53 128.45 126.05 125.31 125.26 125.26 125.26 125.26 125.26 125.26 125.26 125.26 125.26 125.26 125.26 125.26 125.26 125.26 125.26 125.26 125.26 125.26 125.26 125.27 125.27 125.27 125.27 125.27 125.27 125.27 125.27 125.27 125.27 125.27 125.27 125.27 125.27 125.27 125.27 125.27 125.27 125.27 125.27 125.27 125.27 125.28 125.28 125.28 125.28 125.28 125.28 125.28 125.28 125.28 125.28 125.28 125.28 125.55 128 128.91 128.76 128.83 128.81 128.44 128.44 129.08 129.77 129.98 129.94 129.86 129.79 129.73 129.72 129.81 129.99 130.18 130.36 130.55 130.5 130.49 130.04 127.22 125.38 125.3 125.3 125.3 125.3 125.3 125.3 125.3 125.3 125.3 125.3 125.3 125.3 125.3 125.3 125.3 125.82 128.95 132.09 136.49 144.23 147.81 150.15 152.63 155.23 157.54 159.56 161.55 163.37 165.11 166.66 168.08 169.28 170.08 170.48 170.53 170.27 169.57 168.44 168.71 170.23 171.84 173.01 173.36 173.72 173.49 173.17 172.44 170.67 168.59 166.38 164.4 163.95 163.81 163.87 164.21 163.45 163.67 165.89 169.51 174.35 180.05 182.56 184.53 188.09 191.87 195.24 198.23 200.86 203.14 205.19 206.93 208.44 209.63 210.45 210.91 210.8 208.82 205.69 205.96 208.18 209.13 209.5 209.89 211.92 214.14 215.91 217.81 220.1 -9999 -9999 -9999 -9999 -9999 -9999 -9999 -9999 -9999
-9999 -9999 -9999 -9999 -9999 -9999 164.56 164.35 164.52 164.55 164.51 164.7 164.95 165.42 165.63 165.84 166.29 166.55 166.72 166.89 166.87 166.69 166.62 166.5 166.29 166.04 165.91 165.92 166.11 166.22 166.2 166.31 166.53 166.75 166.84 166.82 166.81 166.81 166.8 166.73 166.56 166.21 165.83 165.39 164.77 164.08 163.51 162.93 162.24 161.61 161.13 160.68 160.16 159.64 159.07 158.39 157.57 156.84 156.23 155.09 154.54 154.42 154.29 154.14 153.95 153.78 153.55 152.67 151.43 150.02 148.31 147.75 147.59 147.28 146.78 146.29 145.79 145.32 144.78 143.95 143.27 142.88 142.45 142.11 141.88 141.6 141.3 141.07 140.92 140.91 140.92 140.7 140.4 140.1 139.66 139.3 139.17 138.98 138.73 138.33 137.9 137.47 137.05 136.7 136.35 136.07 135.85 135.67 135.34 135.11 135.18 135.12 135.08 135.14 135.16 134.89 134.64 134.65 134.76 133.88 133.17 133.24 132.92 133.2 133.81 133.75 133.64 133.74 133.88 133.99 134.01 133.91 133.78 133.71 133.79 134.19 134.42 134.47 134.86 135.61 135.97 136.34 136.44 136.44 136.18 135.76 135.52 135.53 135.38 134.96 134.48 132.81 129.64 128.74 128.49 128.13 127.8 127.72 127.81 127.84 127.81 127.78 127.8 127.95 128.19 127.56 126.09 125.48 125.47 125.47 125.54 126.91 128.8 129.19 129.25 129.58 130.15 131.52 132.51 132.5 132.58 132.54 131.26 129.93 129.64 129.54 129.49 129.46 129.47 129.49 129.5 129.5 129.45 129.46 129.44 129.4 129.44 129.49 129.59 129.81 130.13 130.38 130.64 130.77 130.84 130.95 130.95 130.93 130.97 131.01 130.99 130.88 130.6 130.44 130.44 130.85 131.2 131.23 131 130.82 130.27 127.75 125.74 125.27 125.26 125.26 125.26 125.26 125.26 125.26 125.26 125.26 125.26 125.26 125.26 125.26 125.26 125.26 125.26 125.26 125.26 125.26 125.26 125.26 125.26 125.26 125.27 125.27 125.27 125.27 125.27 125.27 125.27 125.27 125.27 125.27 125.27 125.27 125.27 125.27 125.27 125.27 125.27 125.27 125.27 125.27 125.27 125.27 125.28 125.28 125.28 125.28 125.28 125.28 125.28 125.28 125.28 125.95 128.53 128.85 128.82 128.82 128.52 128.54 129.07 129.74 129.95 129.89 129.82 129.77 129.7 129.66 129.68 129.85 130.04 130.25 130.45 130.51 130.39 130.52 129.84 126.96 125.35 125.3 125.3 125.3 125.3 125.3 125.3 125.3 125.3 125.3 125.3 125.3 125.3 125.3 125.3 125.3 126.3 129.83 132.35 136.79 144.01 148.35 150.97 153.56 156.2 158.68 160.82 162.74 164.63 166.53 168.3 169.84 171.02 171.76 172.19 172.36 172.33 172.15 171.75 172.11 172.88 173.69 174.77 175.86 176.78 176.92 176.76 176.09 174.4 172.22 169.58 167.05 166.14 165.57 165.16 165.26 165.26 164.64 164.76 167.39 171.78 177.96 182.11 182.85 184.13 186.63 189.63 192.37 194.82 196.92 198.77 200.39 201.79 202.88 203.77 204.41 204.83 204.11 201.85 202.4 204.53 205.55 205.91 206.32 208.33 210.45 212.96 216.44 220.17 -9999 -9999 -9999 -9999 -9999 -9999 -9999 -9999 -9999
-9999 -9999 -9999 -9999 -9999 -9999 165.27 165.13 165.24 165.16 165.13 165.36 165.7 166.16 166.34 166.42 166.71 166.88 166.97 167.1 167.2 167.17 167.2 167.13 166.88 166.59 166.47 166.53 166.73 166.81 166.84 166.97 167.25 167.51 167.52 167.4 167.29 167.2 167.15 167.05 166.87 166.58 166.16 165.7 165.14 164.57 164.03 163.45 162.79 162.2 161.77 161.32 160.78 160.14 159.5 158.77 157.93 157.28 156.71 155.44 154.56 154.44 154.3 154.11 153.84 153.53 153.11 152.29 151.4 150.48 149.49 148.91 148.5 147.92 147.34 146.71 146.1 145.74 145.29 144.28 143.42 142.97 142.61 142.37 142.19 141.86 141.41 141.15 141 141.15 141.2 140.91 140.52 140.15 139.76 139.47 139.33 139.08 138.8 138.45 138.03 137.65 137.29 136.92 136.58 136.31 136.08 135.87 135.56 135.32 135.2 135.11 135.11 135.16 135.11 134.91 134.73 134.79 134.87 134.02 133.1 133.08 132.94 133.42 133.82 133.73 133.7 133.84 133.98 134.04 134.04 133.84 133.63 133.66 133.8 134.1 134.38 134.6 135.32 135.88 136.17 136.45 136.5 136.42 135.97 135.49 135.4 135.21 134.84 134.51 134.04 131.39 128.96 128.55 128.16 127.85 127.71 127.71 127.79 127.8 127.77 127.78 127.87 128.15 127.82 126.37 125.55 125.46 125.46 125.5 126.26 128.27 129.12 129.18 129.36 129.77 130.61 132.03 132.6 132.49 132.62 132.15 130.65 129.58 129.41 129.33 129.32 129.34 129.38 129.41 129.42 129.43 129.38 129.41 129.43 129.45 129.53 129.58 129.68 129.78 130.03 130.23 130.38 130.48 130.6 130.77 130.82 130.9 130.99 131.01 130.95 130.72 130.42 130.43 130.56 130.92 131.07 131.07 130.95 130.79 129.87 127.14 125.52 125.26 125.25 125.25 125.25 125.26 125.26 125.26 125.26 125.26 125.26 125.26 125.26 125.26 125.26 125.26 125.26 125.26 125.26 125.26 125.26 125.26 125.26 125.26 125.26 125.26 125.26 125.27 125.27 125.27 125.27 125.27 125.27 125.27 125.27 125.27 125.27 125.27 125.27 125.27 125.27 125.27 125.27 125.27 125.27 125.27 125.27 125.27 125.28 125.28 125.28 125.28 125.28 125.28 125.29 126.51 128.85 128.85 128.82 128.56 128.5 128.99 129.7 129.98 129.86 129.77 129.72 129.69 129.63 129.61 129.66 129.9 130.11 130.3 130.48 130.41 130.26 130.57 129.5 126.54 125.32 125.3 125.3 125.3 125.3 125.3 125.3 125.3 125.3 125.3 125.3 125.3 125.3 125.3 125.3 125.3 126.98 130.68 132.87 137.87 143.03 147.49 151.06 154.05 156.99 159.66 161.71 163.67 165.84 168.09 170.08 171.69 172.8 173.44 173.9 174.17 174.26 174.34 174.37 174.62 174.97 175.26 176.17 177.35 178.45 179.05 179.42 179.21 177.88 175.76 172.99 170.37 168.57 167.33 166.62 166.19 166.56 166.46 165.9 166.37 169.7 175.7 181.39 182.65 182.18 182.44 184.05 185.89 187.87 189.84 191.87 193.72 195.1 196.2 197.1 197.97 198.84 198.91 198.02 199.59 201.61 202.46 202.63 203.34 205.88 209.15 213.59 218.65 223.21 -9999 -9999 -9999 -9999 -9999 -9999 -9999 -9999 -9999
