NCOLS 413
NROWS 33
XLLCORNER 341179.518085
YLLCORNER 4516879.65873
CELLSIZE 10 
NODATA_value -9999 
-9999 -9999 -9999 -9999 -9999 -9999 180.64 180.31 180.19 180.46 180.71 180.76 180.91 181.25 181.65 181.98 182.13 182.1 182.02 181.97 181.92 181.82 181.67 181.66 181.69 181.64 181.65 181.78 182.01 182.24 182.36 182.34 182.3 182.17 181.47 180.75 180.47 180.24 179.95 179.13 178.03 177.22 176.47 175.77 175.12 174.46 173.71 172.89 172.43 172.13 171.68 170.71 169.62 168.58 167.84 167.28 166.79 166.25 165.54 164.84 164.1 163.53 163.01 162.38 161.23 159.77 158.59 157.35 156.14 155.25 154.71 153.98 153.03 151.93 150.81 149.97 149.47 149.35 149.41 149.18 148.75 148.41 147.7 146.73 145.56 144.23 143.18 142.54 141.98 141.54 141.15 140.86 140.66 140.43 140.17 140.09 140.18 140.12 139.97 140.16 140.2 140.19 139.96 139.32 138.58 137.82 136.58 136.02 136 135.78 134.74 133.74 133.17 132.73 132.45 132.1 131.94 131.88 131.85 131.81 131.87 131.97 131.22 132.05 132.45 132.27 132.26 132.52 132.66 132.91 133.37 134.41 135.1 135.05 134.9 134.77 134.78 134.91 134.86 134.57 134.06 133.94 133.76 133.43 133.19 133.03 132.48 129.95 127.72 125.88 125.37 125.37 125.37 125.37 125.65 127.76 128.44 128.56 129.23 129.77 129.86 129.82 129.6 129.09 128.44 127.98 128.13 128.47 128.77 129.22 129.47 129.76 129.81 130.15 131.4 132.42 132.54 132.52 132.39 131.22 129.14 126.98 126.15 126.02 125.58 125.47 125.47 125.47 125.47 125.47 125.5 125.68 125.48 125.47 125.47 125.47 125.47 125.47 125.47 125.47 125.47 125.55 125.8 125.88 125.91 126.13 126.9 127.07 127.18 127.85 129.34 130.87 131.25 131.16 131.09 131.18 131.44 131.46 131.17 130.83 130.3 128.45 125.98 125.22 125.22 125.22 125.22 125.22 125.22 125.22 125.22 125.22 125.22 125.22 125.22 125.22 125.22 125.22 125.22 125.22 125.22 125.22 125.22 125.22 125.22 125.23 125.23 125.23 125.23 125.23 125.23 125.23 125.23 125.23 125.23 125.23 125.23 125.23 125.23 125.23 125.23 125.23 125.23 125.23 125.23 125.23 125.23 125.23 125.23 125.23 125.23 125.23 125.24 126.24 129.23 130.24 129.54 126.09 125.25 125.27 126.98 129.57 129.81 129.51 129.25 129.23 129.33 129.35 129.32 129.17 129.05 128.89 129.02 129.38 129.71 129.85 129.98 130.09 130.27 130.44 130.49 130.26 128.62 126.09 125.26 125.26 125.26 125.26 125.26 125.26 125.26 125.26 125.25 125.25 125.25 125.25 125.25 125.25 125.25 125.25 126.11 130.17 133.19 140.63 152.31 160.21 163.72 165.7 167.64 169.19 170.19 170.86 171.76 172.36 173.36 175.16 177.14 179.24 181.63 184.11 186.63 189.09 191.57 193.54 195.24 197.1 198.63 199.85 201.19 202.61 204.05 205.4 206.62 207.97 209.36 210.64 212.13 213.44 214.48 215.19 215.57 215.81 215.87 215.89 215.82 215.55 214.94 213.99 212.53 210.81 209.04 206.86 204.37 202.58 201.55 198.58 197.44 199.26 202.94 204.34 206.09 208.02 210.01 212.07 213.94 215.61 217.14 218.47 219.72 220.78 221.32 221.72 221.98 222.31 222.57 222.66 222.53 222.2 221.77 221.13 220.36 219.53 218.49 -9999 -9999 -9999 -9999 -9999 -9999 -9999 -9999 -9999 -9999
-9999 -9999 -9999 -9999 -9999 -9999 180.62 180.43 180.51 180.86 181.15 181.21 181.37 181.63 181.9 182.1 182.15 182.07 181.93 181.83 181.82 181.78 181.67 181.67 181.75 181.78 181.88 182.01 182.17 182.39 182.52 182.44 182.41 182.27 181.6 180.89 180.58 180.42 180.22 179.49 178.28 177.34 176.43 175.57 174.9 174.31 173.75 173.1 172.67 172.34 171.6 170.34 169.31 168.39 167.63 167.03 166.52 166.01 165.27 164.48 163.85 163.31 162.85 162.11 160.69 159.15 157.82 156.56 155.44 154.53 153.9 153.29 152.63 151.87 150.83 149.93 149.36 149.24 149.29 149.11 148.71 148.15 147.39 146.29 144.16 142.3 141.5 141.24 141.04 140.91 140.78 140.59 140.37 140.17 140.01 139.99 140.12 140.13 139.92 140.12 140.22 140.15 139.93 139.28 138.42 137.52 136.35 135.68 135.53 135.08 134.24 133.49 132.95 132.5 132.18 131.95 131.88 131.81 131.77 131.76 131.8 131.83 131.08 132.37 132.5 132.2 132.38 132.63 132.78 133.5 134.39 134.92 135.12 135.01 134.89 134.74 134.69 134.76 134.68 134.2 133.87 133.84 133.51 133.13 133.02 132.82 131.73 129.04 126.76 125.43 125.36 125.36 125.36 125.43 126.75 128.43 128.36 128.76 129.46 129.83 129.82 129.71 129.35 128.76 128.14 127.82 128.08 128.49 129.04 129.33 129.59 129.86 129.79 130.53 131.87 132.57 132.45 132.56 132.06 130.5 128.27 126.47 126.08 125.84 125.49 125.47 125.47 125.47 125.47 125.47 125.53 125.83 125.49 125.47 125.47 125.47 125.47 125.47 125.47 125.47 125.47 125.49 125.71 125.8 125.86 126.15 127.02 127.04 127.14 127.98 129.75 131.08 131.26 131.13 131.03 131.12 131.33 131.36 131.08 130.72 130.09 127.95 125.7 125.21 125.21 125.21 125.21 125.22 125.22 125.22 125.22 125.22 125.22 125.22 125.22 125.22 125.22 125.22 125.22 125.22 125.22 125.22 125.22 125.22 125.22 125.22 125.22 125.22 125.22 125.22 125.23 125.23 125.23 125.23 125.23 125.23 125.23 125.23 125.23 125.23 125.23 125.23 125.23 125.23 125.23 125.23 125.23 125.23 125.23 125.23 125.23 125.23 125.33 127.22 129.78 130.32 129.17 125.68 125.24 125.33 128.01 129.8 129.7 129.34 129.03 129.11 129.3 129.3 129.26 129.11 128.95 128.8 128.93 129.36 129.71 129.88 130.02 130.15 130.37 130.51 130.51 130.1 128.33 125.99 125.25 125.25 125.25 125.25 125.25 125.25 125.25 125.25 125.25 125.25 125.25 125.25 125.25 125.25 125.25 125.25 126.67 130.97 134.13 143.9 156.56 162.59 165.22 167.43 169.51 171.17 172.36 173.37 174.46 175.23 176.32 178.01 179.88 182.04 184.48 186.46 188.25 189.93 191.71 193.72 195.98 198.33 200.2 201.57 202.92 204.4 205.95 207.41 208.71 210.04 211.3 212.61 214.03 215.17 215.92 216.38 216.58 216.68 216.7 216.77 216.74 216.6 216.16 215.3 213.82 212.05 209.8 206.71 203.75 202.05 201.18 198.57 197.4 199.03 202.23 203.62 205.67 207.55 209.54 211.62 213.6 215.45 217.05 218.28 219.24 220.11 220.54 220.76 220.96 221.17 221.24 221.14 220.72 220.03 219.36 218.6 217.85 217.06 215.95 -9999 -9999 -9999 -9999 -9999 -9999 -9999 -9999 -9999 -9999
-9999 -9999 -9999 -9999 -9999 -9999 180.56 180.58 180.83 181.19 181.44 181.56 181.72 181.89 182.01 182.07 182.03 181.89 181.74 181.66 181.71 181.77 181.72 181.7 181.88 182.04 182.23 182.33 182.43 182.61 182.7 182.57 182.48 182.32 181.75 181.07 180.73 180.58 180.33 179.78 178.55 177.41 176.37 175.49 174.91 174.32 173.81 173.28 172.8 172.22 171.18 169.89 168.95 168.16 167.44 166.79 166.21 165.72 164.94 164.15 163.58 163.12 162.68 161.63 160.02 158.5 157.07 155.8 154.75 153.83 153.18 152.71 152.37 152 151.03 150.04 149.39 149.16 149.07 148.84 148.45 147.81 147.03 145.59 142.88 141.29 141.1 141.1 141.08 141.04 140.89 140.54 140.23 140.09 139.94 139.9 140.03 140.1 139.82 139.86 139.76 139.29 138.51 137.52 136.68 136.12 135.68 135.4 135.12 134.68 133.95 133.34 132.82 132.4 132.07 131.93 131.87 131.77 131.75 131.78 131.76 131.5 131.13 132.52 132.62 132.3 132.58 132.91 133.24 134.28 135.11 135.02 135.01 135.02 134.93 134.79 134.67 134.67 134.43 133.88 133.76 133.58 133.15 132.8 132.76 132.42 130.57 128.19 125.92 125.36 125.36 125.36 125.36 125.91 128.01 128.38 128.37 129 129.61 129.8 129.73 129.53 129.1 128.41 127.84 127.65 127.93 128.57 129.26 129.45 129.79 129.86 129.91 131.06 132.26 132.57 132.48 132.5 131.57 129.71 127.47 126.2 126.04 125.64 125.47 125.47 125.47 125.47 125.47 125.47 125.53 125.85 125.49 125.47 125.47 125.47 125.47 125.47 125.47 125.47 125.47 125.47 125.53 125.59 125.71 126.45 127.31 127.17 127.49 128.67 130.32 131.22 131.26 131.13 131.09 131.23 131.35 131.25 130.92 130.56 129.82 127.38 125.46 125.21 125.21 125.21 125.21 125.21 125.21 125.21 125.21 125.22 125.22 125.22 125.22 125.22 125.22 125.22 125.22 125.22 125.22 125.22 125.22 125.22 125.22 125.22 125.22 125.22 125.22 125.22 125.22 125.22 125.22 125.22 125.23 125.23 125.23 125.23 125.23 125.23 125.23 125.23 125.23 125.23 125.23 125.23 125.23 125.23 125.23 125.23 125.23 125.23 125.61 128.43 130.11 130.32 128.87 125.51 125.23 125.43 128.35 129.75 129.54 129.15 128.91 129.05 129.3 129.3 129.23 129.12 128.93 128.73 128.81 129.24 129.67 129.91 130.09 130.16 130.31 130.47 130.46 129.88 128.09 125.79 125.25 125.25 125.25 125.25 125.25 125.25 125.25 125.25 125.25 125.25 125.25 125.25 125.25 125.25 125.25 125.26 127.4 131.7 135.85 147.42 159.18 164.07 166.6 168.91 170.99 172.78 174.26 175.6 176.81 177.87 179.25 180.96 182.59 184.36 186.83 189.02 190.6 191.8 193.16 195.07 197.32 199.47 201.5 203.14 204.57 206.09 207.75 209.32 210.69 211.91 213.06 214.29 215.45 216.3 216.83 217.19 217.44 217.6 217.73 217.88 218.06 218.19 217.84 216.87 215.34 213.39 210.51 206.5 203.08 201.42 200.58 198.38 197.28 198.67 201.2 202.87 204.92 207.04 209.16 211.29 213.29 215.06 216.53 217.71 218.54 219.24 219.56 219.56 219.59 219.56 219.34 218.98 218.3 217.44 216.79 216.21 215.55 214.86 213.92 -9999 -9999 -9999 -9999 -9999 -9999 -9999 -9999 -9999 -9999
-9999 -9999 -9999 -9999 -9999 -9999 180.62 180.78 181.14 181.45 181.61 181.77 181.89 181.97 182.01 181.96 181.82 181.64 181.52 181.49 181.57 181.73 181.71 181.72 181.96 182.22 182.5 182.63 182.67 182.76 182.8 182.67 182.51 182.33 181.79 181.18 180.84 180.72 180.47 179.97 178.75 177.43 176.34 175.5 175 174.44 173.84 173.31 172.65 171.81 170.67 169.54 168.72 168.03 167.32 166.64 165.99 165.35 164.56 163.83 163.31 162.91 162.25 160.84 159.22 157.71 156.28 155.04 154.08 153.27 152.72 152.36 152.25 152.09 151.24 150.24 149.61 149.27 148.93 148.46 147.99 147.41 146.73 145.29 142.69 141.32 141.21 141.23 141.27 141.23 141.1 140.64 140.26 140.08 139.93 139.8 139.88 140.06 139.68 139.13 138.41 137.64 136.99 136.5 136.2 136.07 135.78 135.31 135.15 134.87 133.94 133.2 132.7 132.35 132.07 132 131.95 131.81 131.79 131.86 131.73 131.14 131.56 132.52 132.61 132.48 132.74 133.5 134.09 134.71 134.97 134.84 134.89 135.01 134.99 134.85 134.69 134.45 134.02 133.64 133.51 133.13 132.28 131.44 131.66 131.28 129.39 127.32 125.46 125.36 125.36 125.36 125.46 126.88 128.41 128.25 128.48 129.15 129.66 129.65 129.57 129.35 128.81 128.09 127.62 127.53 127.86 128.75 129.34 129.68 129.98 129.77 130.25 131.59 132.49 132.51 132.58 132.3 130.95 128.86 126.81 126.11 125.92 125.51 125.47 125.47 125.47 125.47 125.47 125.47 125.52 125.88 125.5 125.47 125.47 125.47 125.47 125.47 125.47 125.47 125.47 125.47 125.47 125.48 125.64 127.09 127.38 127.18 127.82 129.27 130.67 131.21 131.22 131.2 131.21 131.26 131.33 131.16 130.8 130.45 129.51 126.86 125.31 125.21 125.21 125.21 125.21 125.21 125.21 125.21 125.21 125.21 125.21 125.21 125.21 125.22 125.22 125.22 125.22 125.22 125.22 125.22 125.22 125.22 125.22 125.22 125.22 125.22 125.22 125.22 125.22 125.22 125.22 125.22 125.22 125.22 125.22 125.22 125.23 125.23 125.23 125.23 125.23 125.23 125.23 125.23 125.23 125.23 125.23 125.23 125.23 125.25 126.24 129.36 130.15 130.28 128.72 125.45 125.23 125.59 128.77 129.73 129.38 129.02 128.86 129.06 129.33 129.3 129.25 129.13 128.95 128.72 128.77 129.2 129.69 129.88 130.08 130.21 130.46 130.46 130.23 129.66 127.88 125.63 125.25 125.25 125.25 125.25 125.25 125.25 125.25 125.25 125.25 125.25 125.25 125.25 125.25 125.25 125.25 125.35 128.38 132.36 137.88 149.51 159.65 164.88 167.67 170 172.13 174.12 175.9 177.45 178.8 180.18 181.72 183.32 184.79 185.96 187.87 190.28 192.33 194.05 195.82 197.74 199.69 201.38 203.11 204.85 206.53 208 209.57 211.06 212.44 213.6 214.65 215.75 216.63 217.22 217.65 218.06 218.4 218.68 218.96 219.37 219.82 220.12 219.46 218.07 216.25 214.05 210.7 206.33 202.66 200.86 199.94 198.08 197.07 198.18 200.17 201.8 203.72 206.23 208.58 210.75 212.6 214.13 215.5 216.75 217.49 217.98 218.14 217.91 217.72 217.38 216.88 216.41 215.7 215.03 214.63 214.26 213.81 213.24 212.42 -9999 -9999 -9999 -9999 -9999 -9999 -9999 -9999 -9999 -9999
-9999 -9999 -9999 -9999 -9999 -9999 180.69 180.93 181.33 181.63 181.77 181.85 181.89 181.94 181.93 181.82 181.65 181.48 181.37 181.37 181.46 181.65 181.61 181.63 181.91 182.25 182.61 182.8 182.76 182.76 182.83 182.71 182.45 182.21 181.62 181.17 180.89 180.86 180.65 180.14 178.92 177.54 176.45 175.67 175.21 174.52 173.83 173.22 172.45 171.45 170.25 169.24 168.52 167.88 167.11 166.45 165.78 164.98 164.14 163.54 163.07 162.56 161.47 159.93 158.37 156.85 155.49 154.37 153.52 152.89 152.46 152.18 152.18 152 151.22 150.34 149.84 149.43 148.87 148.17 147.5 146.94 146.46 145.29 142.96 141.53 141.38 141.38 141.41 141.46 141.3 140.71 140.36 140.15 139.95 139.76 139.72 139.97 139.67 139.03 138.42 138.03 137.64 136.92 136.73 136.73 136.31 135.22 135.01 134.82 133.91 133.07 132.6 132.3 132.06 132.04 132.04 131.9 131.8 131.88 131.67 130.95 132.04 132.49 132.63 132.71 132.88 133.97 134.69 134.79 134.74 134.68 134.65 134.74 134.68 134.54 134.34 133.93 133.56 133.38 132.47 131.58 130.06 128.98 129.21 129.21 128.73 126.56 125.36 125.35 125.35 125.35 125.76 127.61 128.37 128.2 128.62 129.3 129.63 129.54 129.44 129.18 128.55 127.85 127.48 127.49 128.02 129.03 129.37 129.94 129.98 129.78 130.73 132.05 132.56 132.49 132.61 131.93 130.21 127.99 126.38 126.07 125.75 125.47 125.47 125.47 125.47 125.47 125.47 125.47 125.5 125.86 125.53 125.47 125.47 125.47 125.47 125.47 125.47 125.47 125.47 125.47 125.47 125.47 125.9 127.57 127.33 127.48 128.25 129.78 130.91 131.21 131.2 131.22 131.24 131.25 131.26 131.07 130.76 130.36 129.15 126.43 125.25 125.21 125.21 125.21 125.21 125.21 125.21 125.21 125.21 125.21 125.21 125.21 125.21 125.21 125.21 125.21 125.21 125.22 125.22 125.22 125.22 125.22 125.22 125.22 125.22 125.22 125.22 125.22 125.22 125.22 125.22 125.22 125.22 125.22 125.22 125.22 125.22 125.22 125.22 125.22 125.22 125.23 125.23 125.23 125.23 125.23 125.23 125.23 125.23 125.35 127.23 129.9 130.06 130.25 128.59 125.41 125.23 125.75 128.94 129.67 129.26 128.9 128.87 129.15 129.38 129.32 129.25 129.1 128.98 128.82 128.78 129.23 129.72 129.98 130.17 130.41 130.58 130.49 130.14 129.52 127.51 125.45 125.25 125.25 125.25 125.25 125.25 125.25 125.25 125.25 125.25 125.25 125.25 125.25 125.25 125.25 125.25 125.64 129.56 132.93 139.22 150.32 159.66 165.35 168.4 170.72 173.02 175.23 177.24 178.96 180.57 182.38 183.95 185.34 186.8 187.95 189.26 191.42 193.97 196.34 198.38 200.19 201.83 203.29 204.96 206.66 208.37 209.76 211.26 212.7 214.04 215.18 216.21 217.11 217.76 218.21 218.59 218.97 219.3 219.71 220.26 220.84 221.27 221.32 220.22 218.61 216.49 213.97 210.34 206 202.24 200.27 199.26 197.7 196.77 197.65 199.17 200.35 202.02 204.77 207.36 209.51 211.22 212.79 214.12 215.23 215.9 216.18 216.02 215.62 215.3 214.81 214.34 213.92 213.42 213.03 212.82 212.48 211.95 211.21 210.24 -9999 -9999 -9999 -9999 -9999 -9999 -9999 -9999 -9999 -9999
-9999 -9999 -9999 -9999 -9999 -9999 180.75 181.01 181.43 181.73 181.81 181.81 181.79 181.82 181.82 181.71 181.56 181.42 181.34 181.35 181.44 181.6 181.52 181.53 181.9 182.32 182.65 182.84 182.82 182.83 182.92 182.69 182.3 181.97 181.42 181.11 180.89 180.89 180.7 180.18 179.1 177.83 176.72 175.91 175.32 174.56 173.82 173.17 172.41 171.33 170.02 169 168.14 167.4 166.58 165.95 165.33 164.48 163.71 163.24 162.71 161.83 160.47 159.06 157.6 156.13 154.88 153.9 153.21 152.69 152.3 152.03 151.98 151.66 150.92 150.16 149.72 149.22 148.6 147.91 147.12 146.48 145.99 144.95 143.11 141.81 141.65 141.53 141.48 141.57 141.37 140.9 140.6 140.3 140.03 139.78 139.62 139.81 139.59 138.96 138.5 138.29 137.95 137.15 136.89 136.89 136.5 135.1 134.74 134.63 133.9 133 132.55 132.23 132 132.03 132.05 131.96 131.8 131.85 131.51 131 132.23 132.47 132.67 132.86 132.96 133.9 134.53 134.6 134.56 134.39 134.14 134.14 133.97 133.76 133.54 133.37 133.3 133.02 131.01 129.54 128.66 128.62 128.78 128.78 128.37 125.83 125.35 125.35 125.35 125.39 126.41 128.08 128.27 128.23 128.77 129.41 129.54 129.47 129.32 128.98 128.31 127.7 127.42 127.52 128.47 129.28 129.54 130.08 129.77 130.01 131.28 132.36 132.51 132.53 132.5 131.39 129.37 127.12 126.12 125.97 125.6 125.47 125.47 125.47 125.47 125.47 125.47 125.47 125.49 125.94 125.62 125.47 125.47 125.47 125.47 125.47 125.47 125.47 125.47 125.47 125.47 125.5 126.54 127.67 127.35 127.8 128.81 130.18 131.04 131.16 131.2 131.22 131.29 131.29 131.13 130.92 130.69 130.24 128.7 126.09 125.22 125.21 125.21 125.21 125.21 125.21 125.21 125.21 125.21 125.21 125.21 125.21 125.21 125.21 125.21 125.21 125.21 125.21 125.21 125.21 125.21 125.22 125.22 125.22 125.22 125.22 125.22 125.22 125.22 125.22 125.22 125.22 125.22 125.22 125.22 125.22 125.22 125.22 125.22 125.22 125.22 125.22 125.22 125.22 125.23 125.23 125.23 125.23 125.23 125.68 128.42 130.14 129.99 130.13 128.54 125.4 125.23 125.89 129.03 129.65 129.23 128.83 128.9 129.21 129.29 129.3 129.21 129.05 128.93 128.83 128.74 129.19 129.79 130.14 130.28 130.44 130.5 130.41 130.06 129.36 126.99 125.33 125.25 125.25 125.25 125.25 125.25 125.25 125.25 125.25 125.25 125.25 125.25 125.25 125.25 125.25 125.25 126.2 130.65 133.55 141.22 153.51 161.31 165.67 168.65 171.25 173.83 176.25 178.49 180.48 182.43 184.52 186.19 187.42 188.68 189.88 191.29 193.3 196.06 198.59 200.66 202.37 203.87 205.37 206.96 208.53 210.01 211.5 213.11 214.54 215.78 216.77 217.62 218.28 218.73 219.11 219.46 219.85 220.24 220.75 221.35 221.86 222.14 222.12 221.11 219.52 217.11 213.91 209.91 205.54 201.81 199.69 198.45 197.08 196.4 197.06 198.03 198.8 200.5 203.18 205.65 207.79 209.6 211.02 212.12 212.97 213.47 213.48 213.16 212.79 212.6 212.44 212.22 211.89 211.51 211.12 210.74 210.14 209.36 208.53 207.48 -9999 -9999 -9999 -9999 -9999 -9999 -9999 -9999 -9999 -9999
-9999 -9999 -9999 -9999 -9999 -9999 180.93 181.2 181.55 181.73 181.71 181.67 181.66 181.71 181.71 181.64 181.52 181.42 181.38 181.4 181.49 181.61 181.5 181.54 182 182.47 182.7 182.86 182.94 183.06 183.04 182.59 182.07 181.75 181.32 181.02 180.79 180.74 180.49 179.91 179.04 178.06 177.06 176.19 175.46 174.62 173.84 173.17 172.46 171.32 169.94 168.87 167.96 167.07 166.07 165.32 164.65 163.83 163.14 162.73 161.98 160.69 159.43 158.29 157.08 155.73 154.49 153.59 153.04 152.63 152.23 151.87 151.58 151.13 150.48 149.8 149.29 148.72 148.16 147.55 146.8 146.07 145.48 144.51 143.29 142.35 142.13 141.84 141.6 141.51 141.4 141.07 140.72 140.41 140.16 139.84 139.58 139.63 139.43 138.81 138.56 138.13 137.83 137.2 136.92 136.92 136.62 135.07 134.45 134.39 133.89 132.99 132.56 132.24 131.99 131.95 131.99 131.93 131.77 131.77 131.28 131.26 132.25 132.47 132.65 132.86 133.02 133.55 133.94 133.99 134.03 133.88 133.67 133.6 133.51 133.37 133.2 133.16 132.98 132.49 130.85 129.54 128.68 128.66 128.77 128.74 127.91 125.52 125.35 125.35 125.35 125.51 127.07 128.2 128.19 128.33 128.97 129.49 129.42 129.38 129.15 128.74 128.13 127.59 127.42 127.73 129.01 129.4 129.85 130.03 129.64 130.43 131.81 132.52 132.46 132.59 132.24 130.71 128.45 126.44 126.01 125.83 125.51 125.47 125.47 125.47 125.47 125.47 125.47 125.47 125.49 125.88 125.69 125.47 125.47 125.47 125.47 125.47 125.47 125.47 125.47 125.47 125.47 125.61 127.21 127.49 127.32 127.92 129.24 130.38 130.97 131.04 131.12 131.23 131.39 131.36 131.03 130.79 130.55 130.07 128.26 125.92 125.21 125.21 125.21 125.21 125.21 125.21 125.21 125.21 125.21 125.21 125.21 125.21 125.21 125.21 125.21 125.21 125.21 125.21 125.21 125.21 125.21 125.21 125.21 125.21 125.21 125.22 125.22 125.22 125.22 125.22 125.22 125.22 125.22 125.22 125.22 125.22 125.22 125.22 125.22 125.22 125.22 125.22 125.22 125.22 125.22 125.22 125.22 125.22 125.26 126.4 129.5 130.21 129.91 129.96 128.41 125.41 125.23 125.93 129 129.73 129.32 128.83 128.94 129.29 129.31 129.27 129.18 129.02 128.85 128.74 128.7 129.2 129.83 130.12 130.26 130.41 130.43 130.32 130.01 129.04 126.34 125.26 125.24 125.25 125.25 125.25 125.25 125.25 125.25 125.25 125.25 125.24 125.25 125.25 125.25 125.25 125.27 127.14 131.51 134.5 144.29 156.91 161.99 165.1 168.29 171.41 174.34 177.09 179.72 182.15 184.32 186.4 188.18 189.48 190.68 192.12 193.58 195.56 198.24 200.83 202.81 204.55 206.1 207.65 209.14 210.62 211.93 213.31 214.73 216.06 217.12 217.9 218.58 219.13 219.56 220 220.39 220.78 221.23 221.78 222.41 222.95 223.37 223.53 222.82 221.1 218.25 214.21 209.72 205.19 201.48 199.26 197.66 196.3 195.95 196.31 196.69 197.44 199.49 201.97 204.07 205.93 207.48 208.65 209.48 209.96 209.87 209.65 209.77 210.07 210.1 210.22 210.19 209.91 209.44 208.81 208.09 207.32 206.52 205.65 204.47 -9999 -9999 -9999 -9999 -9999 -9999 -9999 -9999 -9999 -9999
-9999 -9999 -9999 -9999 -9999 -9999 181.21 181.39 181.56 181.61 181.55 181.51 181.54 181.6 181.63 181.58 181.5 181.44 181.43 181.46 181.55 181.65 181.55 181.66 182.1 182.51 182.67 182.83 183.03 183.22 183.03 182.39 181.81 181.58 181.24 180.91 180.61 180.4 180.04 179.45 178.71 177.96 177.14 176.31 175.55 174.67 173.91 173.28 172.66 171.45 169.92 168.73 167.66 166.75 165.79 164.9 164.18 163.4 162.54 161.81 160.87 159.58 158.5 157.63 156.82 155.67 154.35 153.46 153 152.65 152.23 151.79 151.22 150.62 150.09 149.46 148.85 148.28 147.75 147.13 146.41 145.67 145.11 144.39 143.62 142.98 142.62 142.28 141.93 141.63 141.46 141.17 140.82 140.49 140.19 139.89 139.56 139.42 139.26 138.66 138.94 137.98 137.52 137.12 136.9 136.84 136.56 135.06 134.18 134.13 133.84 133 132.6 132.27 132.02 131.88 131.87 131.81 131.69 131.66 131.23 131.63 132.24 132.47 132.64 132.86 133.06 133.3 133.5 133.58 133.6 133.66 133.63 133.51 133.42 133.29 133.02 132.91 132.37 131.5 130.89 130.42 129.23 128.75 128.77 128.71 127.62 125.44 125.35 125.35 125.35 125.69 127.49 128.11 128.15 128.45 129.09 129.44 129.34 129.27 129 128.53 127.97 127.52 127.49 128.27 129.38 129.58 130.12 129.83 129.79 130.95 132.22 132.55 132.47 132.59 131.78 129.81 127.51 126.11 125.98 125.69 125.48 125.47 125.47 125.47 125.47 125.47 125.47 125.47 125.48 125.83 125.76 125.47 125.47 125.47 125.47 125.47 125.47 125.47 125.47 125.47 125.47 125.91 127.63 127.38 127.35 128.01 129.41 130.41 130.87 130.97 131 131.14 131.32 131.28 130.94 130.7 130.4 129.83 127.8 125.77 125.21 125.21 125.21 125.21 125.21 125.21 125.21 125.21 125.21 125.21 125.21 125.21 125.21 125.21 125.21 125.21 125.21 125.21 125.21 125.21 125.21 125.21 125.21 125.21 125.21 125.21 125.21 125.21 125.21 125.22 125.22 125.22 125.22 125.22 125.22 125.22 125.22 125.22 125.22 125.22 125.22 125.22 125.22 125.22 125.22 125.22 125.22 125.22 125.33 127.28 130.08 130.13 129.76 129.83 127.92 125.35 125.23 125.92 129.06 129.79 129.45 128.89 129.01 129.28 129.3 129.25 129.16 128.99 128.86 128.79 128.79 129.26 129.8 130.02 130.18 130.34 130.32 130.28 129.85 128.55 125.76 125.24 125.24 125.24 125.24 125.24 125.24 125.24 125.24 125.24 125.24 125.24 125.24 125.24 125.24 125.24 125.36 128.44 132.27 135.96 146.63 157.1 161.02 163.96 167.29 170.62 173.87 177.23 180.58 183.41 185.74 187.81 189.7 191.31 193 194.75 196.34 198.18 200.46 202.94 205.01 206.77 208.39 210.01 211.53 212.84 213.85 214.92 216.1 217.19 218.07 218.84 219.54 220.1 220.58 221.06 221.49 221.91 222.43 223.1 223.91 224.62 225.09 225.11 224.28 222.16 218.85 214.47 209.71 205.13 201.34 199.02 197.12 195.56 195.42 195.46 195.36 196.05 198.23 200.47 202.17 203.59 204.85 205.81 206.31 206.46 206.6 206.9 207.38 207.91 208.05 208.04 207.9 207.46 206.82 206.13 205.34 204.56 203.78 202.76 201.47 -9999 -9999 -9999 -9999 -9999 -9999 -9999 -9999 -9999 -9999
-9999 -9999 -9999 -9999 -9999 -9999 181.36 181.41 181.45 181.44 181.41 181.4 181.44 181.5 181.57 181.54 181.48 181.44 181.48 181.52 181.59 181.67 181.6 181.81 182.2 182.47 182.66 182.86 183.13 183.26 182.94 182.21 181.62 181.39 181.16 180.81 180.5 180.06 179.57 179.06 178.44 177.79 177.12 176.43 175.71 174.81 174.07 173.49 172.76 171.33 169.77 168.45 167.19 166.33 165.55 164.66 164.03 163.24 161.97 160.67 159.68 158.64 157.71 157.08 156.58 155.71 154.5 153.56 153.06 152.63 152.2 151.69 151 150.3 149.76 149.14 148.45 147.84 147.28 146.65 145.96 145.29 144.84 144.32 143.81 143.38 142.99 142.59 142.17 141.74 141.51 141.25 140.91 140.59 140.23 139.94 139.6 139.19 139.05 138.43 138.04 137.54 137.22 136.95 136.74 136.49 136 134.8 133.97 133.88 133.72 133.07 132.62 132.29 132.06 131.89 131.84 131.79 131.73 131.71 131.45 131.86 132.29 132.51 132.68 132.84 132.99 133.13 133.36 133.49 133.5 133.58 133.59 133.39 133.24 133.09 132.9 132.55 131.83 131.16 130.78 130.41 129.45 128.72 128.67 128.57 127.42 125.42 125.34 125.34 125.34 125.95 127.7 128.01 128.17 128.54 129.14 129.37 129.28 129.17 128.87 128.31 127.81 127.48 127.74 129.01 129.46 129.84 130.15 129.59 130.13 131.47 132.48 132.5 132.52 132.44 130.7 128.4 126.7 126.06 125.94 125.57 125.47 125.47 125.47 125.47 125.47 125.47 125.47 125.47 125.49 125.84 125.8 125.48 125.47 125.47 125.47 125.47 125.47 125.47 125.47 125.47 125.51 126.49 127.74 127.4 127.52 128.21 129.55 130.49 130.89 130.92 130.9 130.98 131.07 131.03 130.84 130.62 130.29 129.51 127.26 125.53 125.21 125.21 125.21 125.21 125.21 125.21 125.21 125.21 125.21 125.21 125.21 125.21 125.21 125.21 125.21 125.21 125.21 125.21 125.21 125.21 125.21 125.21 125.21 125.21 125.21 125.21 125.21 125.21 125.21 125.21 125.21 125.21 125.21 125.21 125.22 125.22 125.22 125.22 125.22 125.22 125.22 125.22 125.22 125.22 125.22 125.22 125.22 125.22 125.45 127.98 130.18 130.04 129.66 129.66 127.24 125.27 125.23 125.9 129.14 129.75 129.42 128.93 129.06 129.3 129.29 129.25 129.12 128.97 128.91 128.87 128.89 129.22 129.73 129.98 130.12 130.21 130.23 130.08 129.61 127.94 125.45 125.24 125.24 125.24 125.24 125.24 125.24 125.24 125.24 125.24 125.24 125.24 125.24 125.24 125.24 125.25 125.78 129.88 133.01 138.02 149.21 158.05 161.31 163.75 166.39 169.19 172.37 176.07 180.14 183.78 186.81 189.19 191.17 193.17 195.26 197.25 199.17 200.99 202.95 205.12 207.21 209.09 210.77 212.42 213.89 215.1 215.83 216.63 217.68 218.58 219.4 220.21 220.93 221.49 222.04 222.65 223.27 223.83 224.37 224.97 225.63 226.16 226.26 225.83 224.55 221.91 218.3 214.13 209.79 205.55 201.77 199.08 196.84 195 194.81 194.64 194.14 194.38 196.21 198.5 200.16 201.24 202.24 203.03 203.64 204.32 204.97 205.29 205.49 205.73 205.83 205.48 205.04 204.54 204.04 203.47 202.63 201.82 200.95 199.92 198.76 -9999 -9999 -9999 -9999 -9999 -9999 -9999 -9999 -9999 -9999
-9999 -9999 -9999 -9999 -9999 -9999 181.33 181.3 181.31 181.33 181.35 181.35 181.39 181.43 181.51 181.53 181.5 181.46 181.53 181.57 181.61 181.65 181.61 181.89 182.28 182.56 182.83 183.09 183.3 183.28 182.82 182.07 181.51 181.27 181.12 180.82 180.45 179.87 179.35 178.88 178.38 177.85 177.21 176.52 175.74 174.89 174.2 173.65 172.62 170.99 169.5 168.19 166.84 165.94 165.18 164.23 163.5 162.63 161.2 159.71 158.7 157.81 157.09 156.56 156.11 155.52 154.55 153.63 152.99 152.54 152.11 151.45 150.75 150.11 149.49 148.81 148.09 147.42 146.79 146.19 145.55 144.96 144.65 144.18 143.8 143.51 143.02 142.53 142.04 141.61 141.47 141.36 141.15 140.8 140.29 139.96 139.59 139.04 138.77 138.25 137.67 137.48 137.19 136.79 136.48 136.06 135.43 134.53 133.82 133.59 133.44 133.01 132.64 132.41 132.23 132.08 131.99 131.94 131.88 131.81 131.3 131.48 132.36 132.56 132.61 132.61 132.66 132.75 133.07 133.2 133.23 133.14 133.2 133.12 132.98 132.89 132.74 132.04 131.41 130.92 130.57 130.14 129.33 128.64 128.52 128.35 127.3 125.46 125.34 125.34 125.34 126.14 127.73 127.98 128.22 128.63 129.18 129.32 129.24 129.06 128.64 128.09 127.7 127.54 128.32 129.43 129.43 129.99 129.87 129.51 130.61 131.95 132.59 132.44 132.57 131.92 128.85 126.86 126.24 126.07 125.82 125.51 125.47 125.47 125.47 125.47 125.47 125.47 125.47 125.47 125.72 126.18 125.83 125.47 125.47 125.47 125.47 125.47 125.47 125.47 125.47 125.47 125.66 127.18 127.75 127.58 127.72 128.34 129.65 130.6 130.94 130.9 130.87 130.91 130.92 130.89 130.8 130.57 130.16 129.15 126.76 125.35 125.21 125.21 125.21 125.21 125.21 125.21 125.21 125.21 125.21 125.21 125.21 125.21 125.21 125.21 125.21 125.21 125.21 125.21 125.21 125.21 125.21 125.21 125.21 125.21 125.21 125.21 125.21 125.21 125.21 125.21 125.21 125.21 125.21 125.21 125.21 125.21 125.21 125.21 125.22 125.22 125.22 125.22 125.22 125.22 125.22 125.22 125.22 125.22 125.63 128.49 130.12 130.02 129.72 129.61 127.07 125.25 125.22 125.79 129.1 129.71 129.32 128.93 129.12 129.3 129.29 129.2 129.05 128.89 128.85 128.9 128.89 129.1 129.65 129.94 130.08 130.17 130.2 129.93 129.41 127.25 125.31 125.24 125.24 125.24 125.24 125.24 125.24 125.24 125.24 125.24 125.24 125.24 125.24 125.24 125.24 125.29 126.83 131.21 134.07 140.76 152.62 161.6 164.36 166.14 168.01 170.01 172.2 175.02 178.9 183.15 187.08 190.08 192.66 195.25 197.69 199.84 201.87 203.77 205.64 207.51 209.51 211.55 213.31 214.96 216.39 217.49 218.17 219.02 219.93 220.79 221.57 222.36 223.12 223.78 224.51 225.32 226.04 226.56 226.89 227.11 227.2 227.11 226.63 225.68 223.89 220.86 217.23 213.55 209.97 206.28 202.49 199.11 196.34 194.31 194.13 193.77 193.2 193.22 194.3 196.49 198.28 199.5 200.37 201.33 202.22 202.86 203.25 203.37 203.32 203.25 203.06 202.73 202.36 201.79 201.33 200.85 200 199.16 198.23 197.19 196.05 -9999 -9999 -9999 -9999 -9999 -9999 -9999 -9999 -9999 -9999
-9999 -9999 -9999 -9999 -9999 -9999 181.18 181.18 181.2 181.26 181.34 181.34 181.37 181.4 181.48 181.54 181.57 181.55 181.59 181.61 181.63 181.65 181.64 181.9 182.32 182.75 183.08 183.36 183.45 183.27 182.7 181.95 181.42 181.17 181.09 180.84 180.36 179.84 179.33 178.86 178.38 177.77 177.01 176.27 175.52 174.82 174.24 173.63 172.31 170.59 169.18 167.94 166.62 165.51 164.56 163.38 162.38 161.39 160.13 158.93 158.01 157.25 156.67 156.08 155.53 154.94 154.13 153.32 152.7 152.31 151.87 151.16 150.53 149.96 149.28 148.53 147.86 147.13 146.43 145.84 145.28 144.8 144.56 144.12 143.7 143.33 142.68 142.16 141.71 141.34 141.21 141.46 141.42 141.06 140.5 139.97 139.45 138.83 138.37 137.99 137.71 137.62 137.09 136.43 135.99 135.51 134.93 134.26 133.7 133.39 133.2 132.94 132.71 132.53 132.35 132.2 132.08 132.01 131.94 131.79 130.96 130.7 132.26 132.39 132.28 132.14 132.05 132.04 132.37 132.45 132.44 132.31 132.48 132.64 132.74 132.78 132.27 131.32 130.91 130.55 130.04 129.51 128.82 128.47 128.38 128.23 127.14 125.43 125.34 125.34 125.34 126.18 127.7 128.03 128.33 128.75 129.2 129.26 129.16 128.84 128.36 127.91 127.62 127.77 129.01 129.36 129.52 129.93 129.41 129.8 131.19 132.33 132.55 132.43 132.51 130.86 127.36 126.32 126.18 126.02 125.67 125.48 125.47 125.47 125.47 125.47 125.47 125.47 125.47 125.5 125.98 126.33 125.77 125.47 125.47 125.47 125.47 125.47 125.47 125.47 125.47 125.47 125.93 127.63 127.78 127.76 127.84 128.35 129.69 130.72 130.97 130.89 130.88 130.92 130.89 130.88 130.78 130.52 130.03 128.74 126.39 125.29 125.2 125.2 125.21 125.21 125.21 125.21 125.21 125.21 125.21 125.21 125.21 125.21 125.21 125.21 125.21 125.21 125.21 125.21 125.21 125.21 125.21 125.21 125.21 125.21 125.21 125.21 125.21 125.21 125.21 125.21 125.21 125.21 125.21 125.21 125.21 125.21 125.21 125.21 125.21 125.21 125.21 125.21 125.22 125.22 125.22 125.22 125.22 125.23 125.98 128.92 129.99 129.94 129.76 129.63 127.24 125.26 125.22 125.79 129.06 129.74 129.3 128.9 129.15 129.33 129.36 129.19 129.05 128.95 128.8 128.84 128.87 129.03 129.61 129.88 130.04 130.19 130.18 129.81 129.25 126.5 125.25 125.24 125.24 125.24 125.24 125.24 125.24 125.24 125.24 125.24 125.24 125.24 125.24 125.24 125.24 125.49 128.4 132.24 135.73 144.24 155.64 165.39 169.32 171.06 172.55 173.91 175.05 176.48 179.02 182.72 187.14 190.99 194.29 197.42 200.07 202.38 204.46 206.38 208.27 210.19 212.2 214.15 215.87 217.46 218.88 220.05 220.99 221.93 222.72 223.71 224.57 225.33 226.11 227.02 227.92 228.75 229.28 229.42 229.26 228.88 228.32 227.54 226.44 224.93 222.53 219.22 215.67 212.43 209.44 206.29 202.69 198.66 195.42 193.46 193.42 193.05 192.46 192.18 192.76 194.64 196.67 198.05 199.02 199.77 200.29 200.59 200.82 201.01 201.03 200.93 200.74 200.44 200.08 199.47 198.92 198.42 197.67 196.75 195.71 194.47 193.13 -9999 -9999 -9999 -9999 -9999 -9999 -9999 -9999 -9999 -9999
-9999 -9999 -9999 -9999 -9999 -9999 181.06 181.05 181.11 181.22 181.32 181.34 181.35 181.39 181.46 181.55 181.62 181.66 181.68 181.65 181.66 181.71 181.72 181.96 182.4 182.89 183.26 183.46 183.5 183.26 182.6 181.86 181.32 181.07 180.97 180.71 180.24 179.87 179.36 178.85 178.25 177.47 176.58 175.85 175.22 174.64 174.18 173.37 171.83 170.11 168.71 167.43 166.14 164.91 163.85 162.43 161.14 160.12 159.19 158.34 157.58 157.01 156.39 155.77 155.16 154.35 153.53 152.86 152.34 151.94 151.52 150.89 150.33 149.78 149.06 148.34 147.74 146.99 146.23 145.62 145.14 144.78 144.51 144.07 143.57 143.18 142.3 141.76 141.48 140.77 140.62 141.27 141.42 141.2 140.6 139.8 139.11 138.41 137.86 137.48 137.25 136.91 136.34 135.78 135.36 134.99 134.61 134.19 133.82 133.52 133.27 132.99 132.79 132.58 132.38 132.19 132.03 131.98 131.9 131.6 130.91 130.08 131.72 131.95 131.79 131.57 131.29 131.13 131.3 131.26 131.23 131.66 132.14 132.38 132.65 132.58 131.32 130.58 130.24 129.63 128.95 128.62 128.3 128.18 128.24 128.09 127.1 125.5 125.34 125.34 125.34 125.95 127.43 127.99 128.42 128.86 129.24 129.3 129.09 128.61 128.12 127.75 127.58 128.23 129.38 129.29 129.74 129.6 129.22 130.39 131.76 132.55 132.44 132.48 132.19 129.39 126.65 126.25 126.15 125.94 125.55 125.47 125.47 125.47 125.47 125.47 125.47 125.47 125.47 125.58 126.04 126.25 125.65 125.47 125.47 125.47 125.47 125.47 125.47 125.47 125.47 125.49 126.3 127.78 127.79 127.83 127.91 128.32 129.78 130.85 131 130.96 130.99 131.06 130.98 130.86 130.73 130.39 129.87 128.19 126.07 125.25 125.2 125.2 125.2 125.2 125.2 125.2 125.2 125.21 125.21 125.21 125.21 125.21 125.21 125.21 125.21 125.21 125.21 125.21 125.21 125.21 125.21 125.21 125.21 125.21 125.21 125.21 125.21 125.21 125.21 125.21 125.21 125.21 125.21 125.21 125.21 125.21 125.21 125.21 125.21 125.21 125.21 125.21 125.21 125.21 125.21 125.21 125.22 125.29 126.67 129.38 129.85 129.82 129.73 129.66 127.49 125.29 125.22 125.83 129.11 129.71 129.19 128.89 129.22 129.38 129.33 129.21 129.09 129 128.8 128.87 128.89 129.09 129.6 129.9 130.17 130.34 130.12 129.7 128.75 125.84 125.24 125.24 125.24 125.24 125.24 125.24 125.24 125.24 125.24 125.24 125.24 125.23 125.23 125.23 125.25 126.08 130.12 133.05 138.07 147.64 158.3 167.87 173.62 176.19 177.86 179.16 180.13 180.78 181.63 184.16 188.51 192.69 196.32 199.72 202.65 205.02 207.19 209.25 211.19 213.1 215.01 216.82 218.44 220.02 221.52 222.81 223.91 224.98 225.97 227.03 227.86 228.58 229.38 230.32 231.12 231.63 231.7 231.34 230.69 229.79 228.66 227.2 225.42 223.26 220.3 216.84 213.33 210.37 207.63 204.8 201.38 197.6 194.51 192.58 192.67 191.91 191.01 190.85 191.55 193.08 195.23 196.64 197.41 197.86 198.13 198.37 198.68 198.96 199.1 199.09 198.97 198.59 198.07 197.42 196.75 196.11 195.34 194.29 193.06 191.6 190.14 -9999 -9999 -9999 -9999 -9999 -9999 -9999 -9999 -9999 -9999
-9999 -9999 -9999 -9999 -9999 180.91 180.99 181 181.03 181.16 181.3 181.34 181.34 181.37 181.45 181.54 181.63 181.71 181.76 181.73 181.7 181.77 181.81 182.05 182.46 182.97 183.34 183.5 183.5 183.29 182.54 181.77 181.28 181.01 180.89 180.57 180.1 179.73 179.23 178.64 177.89 177.15 176.27 175.52 174.94 174.42 173.9 172.79 171.1 169.44 168.02 166.56 165.23 164.09 163.13 161.79 160.37 159.38 158.65 157.99 157.44 156.91 156.25 155.7 155.06 154.06 153.19 152.54 152.01 151.57 151.15 150.6 150.05 149.48 148.78 148.19 147.57 146.84 146.12 145.53 145.08 144.78 144.51 144.03 143.44 142.97 142.06 141.5 141.19 140.51 140.3 140.72 140.88 140.59 139.92 139.19 138.5 137.84 137.31 136.89 136.57 136.24 135.88 135.53 135.23 134.95 134.65 134.27 133.87 133.55 133.3 133.02 132.84 132.65 132.45 132.18 131.95 131.92 131.71 131.35 130.97 130.13 130.84 131.41 131.32 131.08 130.7 130.5 130.55 130.39 130.4 131.09 131.66 132.25 132.64 132.04 130.57 130.13 129.74 128.87 128.34 128.21 127.62 127.27 127.71 127.61 126.89 125.66 125.37 125.34 125.33 125.8 127.28 127.92 128.29 128.71 129.09 129.22 128.97 128.48 127.98 127.66 127.74 128.81 129.42 129.45 129.78 129.15 129.58 131.08 132.22 132.63 132.38 132.55 131.46 127.94 126.37 126.22 126.14 125.83 125.49 125.47 125.47 125.47 125.47 125.47 125.47 125.47 125.47 125.67 126.14 126.34 125.67 125.47 125.47 125.47 125.47 125.47 125.47 125.47 125.49 125.73 126.89 127.81 127.79 127.83 127.95 128.43 130 130.99 131.04 131.06 131.16 131.29 131.17 130.83 130.61 130.21 129.59 127.63 125.86 125.23 125.2 125.2 125.2 125.2 125.2 125.2 125.2 125.2 125.2 125.2 125.2 125.2 125.2 125.2 125.21 125.21 125.21 125.21 125.21 125.21 125.21 125.21 125.21 125.21 125.21 125.21 125.21 125.21 125.21 125.21 125.21 125.21 125.21 125.21 125.21 125.21 125.21 125.21 125.21 125.21 125.21 125.21 125.21 125.21 125.21 125.21 125.21 125.43 127.61 129.75 129.86 129.89 129.85 129.83 127.63 125.32 125.22 125.73 128.82 129.6 129.09 128.9 129.31 129.42 129.29 129.16 128.98 128.86 128.79 128.88 128.92 129.18 129.68 130.03 130.23 130.3 130.03 129.5 127.48 125.4 125.23 125.23 125.23 125.23 125.23 125.23 125.23 125.23 125.23 125.23 125.23 125.23 125.23 125.23 125.33 127.21 131.57 133.9 140.5 149.51 158.72 168.37 176.11 179.86 182.06 183.83 185.12 186.02 186.43 187.86 191.73 195.46 198.88 202.49 205.68 208.04 210.27 212.28 214.02 215.79 217.71 219.59 221.3 223.11 224.64 225.98 227.23 228.27 229.27 230.19 230.87 231.47 232.18 232.69 233.02 233 232.61 231.91 230.95 229.8 228.22 226.11 223.76 220.89 217.65 214.47 211.22 208.52 205.87 203.28 200.12 196.89 193.83 191.76 191.8 190.41 189.6 189.69 190.37 191.64 193.43 195 195.8 196.22 196.52 196.87 197.18 197.32 197.38 197.29 196.9 196.2 195.52 194.82 194.06 193.36 192.56 191.44 190.07 188.65 187.33 -9999 -9999 -9999 -9999 -9999 -9999 -9999 -9999 -9999 -9999
-9999 -9999 -9999 -9999 -9999 180.8 180.91 180.97 181.01 181.09 181.25 181.32 181.32 181.35 181.41 181.52 181.63 181.73 181.83 181.83 181.75 181.77 181.85 182.08 182.48 182.94 183.29 183.43 183.45 183.23 182.49 181.77 181.35 181.05 180.9 180.59 180 179.54 179.04 178.3 177.53 176.85 176.02 175.29 174.74 174.18 173.37 171.98 170.24 168.5 166.89 165.42 164.29 163.35 162.53 161.46 160.07 159.02 158.38 157.86 157.39 156.8 156.29 155.79 154.97 153.96 153.1 152.39 151.8 151.34 150.76 150.19 149.65 149.03 148.47 148 147.34 146.63 146.02 145.51 145.07 144.8 144.51 143.95 143.45 142.82 142.08 141.48 140.93 140.45 140.22 140.18 140.01 139.54 139.01 138.49 138 137.55 137.17 136.86 136.55 136.28 136 135.64 135.27 134.94 134.59 134.19 133.71 133.43 133.17 133 132.88 132.7 132.51 132.16 131.91 131.86 131.66 131.55 131.55 131.12 130.2 130.64 130.71 130.52 130.1 130 130.06 129.79 129.59 129.67 129.77 131.96 132.43 130.73 129.47 128.8 128.44 127.91 127.64 127.42 127.33 127.36 127.34 126.99 126.4 125.82 125.59 125.43 125.33 125.71 127.17 127.92 128.21 128.56 128.89 128.99 128.63 128.21 127.89 127.76 128.17 129.26 129.39 129.63 129.58 129.01 130.22 131.7 132.55 132.57 132.47 132.44 130.32 126.9 126.27 126.22 126.11 125.66 125.47 125.47 125.47 125.47 125.47 125.47 125.47 125.47 125.47 125.83 126.35 126.58 125.81 125.47 125.47 125.47 125.47 125.47 125.47 125.47 125.58 126.3 127.51 127.8 127.8 127.83 128.02 128.88 130.31 131.04 131.01 131.04 131.17 131.3 131.19 130.77 130.52 130.06 129.08 127.04 125.7 125.22 125.2 125.2 125.2 125.2 125.2 125.2 125.2 125.2 125.2 125.2 125.2 125.2 125.2 125.2 125.2 125.2 125.2 125.2 125.2 125.2 125.21 125.21 125.21 125.21 125.21 125.21 125.21 125.21 125.21 125.21 125.21 125.21 125.21 125.21 125.21 125.21 125.21 125.21 125.21 125.21 125.21 125.21 125.21 125.21 125.21 125.21 125.21 125.7 128.38 129.9 129.91 129.94 129.98 129.94 127.81 125.36 125.22 125.57 128.41 129.48 129.02 128.88 129.33 129.44 129.28 129.11 128.88 128.77 128.82 128.95 129.01 129.21 129.76 130.11 130.21 130.23 129.9 129.15 126.24 125.24 125.23 125.23 125.23 125.23 125.23 125.23 125.23 125.23 125.23 125.23 125.23 125.23 125.23 125.24 125.65 128.78 132.32 135.02 142.36 150.97 159.86 169.06 177.52 182.31 185 187.27 189.19 190.8 191.8 192.72 195.57 199 202.22 205.64 208.86 211.28 213.3 215.13 216.96 218.93 220.94 222.91 224.78 226.58 228.15 229.52 230.61 231.3 232 232.64 233.1 233.46 233.82 233.82 233.6 233.18 232.51 231.68 230.51 229.11 227.06 224.54 221.92 218.84 215.63 212.94 210.26 207.81 205.29 202.95 199.97 196.92 193.3 191.06 190.85 188.64 187.85 188.22 188.85 190.2 191.99 193.39 194.21 194.65 195.03 195.38 195.5 195.35 195.14 194.67 193.85 193.01 192.37 191.64 190.82 190.09 189.3 188.31 187.1 185.98 184.92 -9999 -9999 -9999 -9999 -9999 -9999 -9999 -9999 -9999 -9999
-9999 -9999 -9999 -9999 -9999 180.82 180.9 180.97 181.02 181.08 181.18 181.28 181.3 181.34 181.39 181.5 181.64 181.78 181.91 181.93 181.81 181.78 181.88 182.11 182.46 182.87 183.18 183.28 183.29 182.99 182.38 181.81 181.48 181.16 180.91 180.66 180.05 179.53 178.87 178 177.21 176.47 175.7 175.08 174.57 173.82 172.58 170.98 169.23 167.38 165.69 164.5 163.63 162.81 162.06 161.12 159.85 158.83 158.21 157.7 157.21 156.77 156.45 155.84 154.84 153.87 153.06 152.38 151.8 151.24 150.43 149.73 149.16 148.59 148.2 147.77 147.15 146.44 145.85 145.48 145.09 144.81 144.47 143.77 143.31 142.66 142.13 141.62 141.16 140.73 140.38 140.05 139.73 139.36 138.95 138.52 138.08 137.7 137.36 137.07 136.75 136.47 136.22 135.83 135.36 134.94 134.54 134.19 133.64 133.44 133.21 133.05 132.92 132.73 132.52 132.19 131.98 131.99 132 132.02 132.02 132.05 130.64 129.91 129.79 129.76 129.59 129.42 129.23 129.04 128.93 129.17 130.5 132.42 131.7 128.65 128.06 128.03 128.2 128.19 128.07 128.18 128.39 128.27 127.92 127.62 127.51 126.29 125.78 125.53 125.33 125.48 126.76 127.92 128.25 128.56 128.78 128.73 128.26 127.89 127.78 127.96 128.54 129.33 129.43 129.64 129.39 129.37 130.93 132.24 132.74 132.48 132.64 132.01 128.93 126.41 126.27 126.22 126.03 125.53 125.47 125.47 125.47 125.47 125.47 125.47 125.47 125.47 125.48 126.05 126.75 126.89 126.07 125.47 125.47 125.47 125.47 125.47 125.47 125.47 125.67 126.92 127.86 127.78 127.83 127.88 128.21 129.42 130.61 130.99 130.93 131.01 131.1 131.14 130.98 130.68 130.45 129.91 128.41 126.33 125.4 125.2 125.2 125.2 125.2 125.2 125.2 125.2 125.2 125.2 125.2 125.2 125.2 125.2 125.2 125.2 125.2 125.2 125.2 125.2 125.2 125.2 125.2 125.2 125.2 125.2 125.2 125.2 125.2 125.2 125.2 125.21 125.21 125.21 125.21 125.21 125.21 125.21 125.21 125.21 125.21 125.21 125.21 125.21 125.21 125.21 125.21 125.21 125.22 126.16 129.1 130.04 129.9 129.92 129.97 129.94 128.19 125.51 125.21 125.45 127.93 129.46 129.1 128.93 129.32 129.6 129.43 129.09 128.83 128.69 128.76 128.89 128.97 129.19 129.77 130.11 130.15 129.98 129.7 128.27 125.5 125.23 125.23 125.23 125.23 125.23 125.23 125.23 125.23 125.23 125.23 125.23 125.23 125.23 125.23 125.28 126.46 130.47 132.69 136.78 144.67 153.24 161.86 170.64 179.04 184.25 187.4 190.02 192.5 194.87 196.71 197.9 199.94 203.05 206.14 209.33 212.4 214.75 216.7 218.65 220.7 222.86 225.02 226.95 228.41 229.82 231.15 232.32 233.03 233.43 233.81 234.2 234.35 234.42 234.36 234.02 233.49 232.88 232.08 231.14 229.82 228.16 225.72 223.01 220.43 217.58 214.76 212.59 210.28 208.08 205.78 203.48 200.5 197.02 192.38 190.33 189.92 187.19 185.74 186.24 187.12 188.42 190.48 192.21 193.01 193.36 193.54 193.6 193.45 193.02 192.37 191.44 190.43 189.62 189.06 188.35 187.58 186.92 186.3 185.53 184.6 183.68 -9999 -9999 -9999 -9999 -9999 -9999 -9999 -9999 -9999 -9999 -9999
-9999 -9999 -9999 -9999 -9999 180.91 180.96 180.99 181.04 181.1 181.18 181.26 181.3 181.35 181.39 181.49 181.65 181.82 181.96 181.99 181.89 181.83 181.91 182.13 182.45 182.8 183.04 183.12 183.1 182.8 182.3 181.85 181.55 181.2 180.85 180.63 179.98 179.38 178.54 177.63 176.79 176.03 175.35 174.87 174.23 173.11 171.61 169.95 168.18 166.34 164.9 163.99 163.25 162.41 161.61 160.69 159.6 158.68 158.01 157.45 157.06 156.81 156.45 155.69 154.61 153.64 152.91 152.35 151.86 151.24 150.37 149.52 148.84 148.38 148.06 147.71 147.19 146.46 145.89 145.58 145.24 144.91 144.51 143.8 143.19 142.71 142.23 141.81 141.42 141.08 140.75 140.37 139.98 139.55 139.04 138.54 138.07 137.71 137.38 137.08 136.8 136.51 136.28 135.83 135.34 134.89 134.46 134.08 133.64 133.49 133.34 133.17 132.96 132.75 132.53 132.27 132.12 132.33 132.35 132.39 132.49 132.57 132.04 131.01 130.58 130.9 131.09 130.91 130.6 130.63 130.82 131.35 132.36 132.56 130.91 128.68 128.39 128.45 128.57 128.64 128.65 128.63 128.56 128.28 127.96 127.86 128 126.7 125.81 125.54 125.31 125.32 126.42 127.91 128.32 128.62 128.7 128.51 128.07 127.78 127.77 128.16 128.75 129.22 129.47 129.51 129.4 130.05 131.66 132.65 132.79 132.54 132.71 131.19 127.64 126.24 126.26 126.22 125.87 125.48 125.47 125.47 125.47 125.47 125.47 125.47 125.47 125.47 125.49 126.26 126.99 127.03 126.4 125.51 125.47 125.47 125.47 125.47 125.47 125.49 126.04 127.43 127.9 127.79 127.87 128.03 128.64 129.83 130.79 130.93 130.86 130.98 131.07 131.05 130.84 130.65 130.32 129.74 127.82 125.78 125.22 125.2 125.2 125.2 125.2 125.2 125.2 125.2 125.2 125.2 125.2 125.2 125.2 125.2 125.2 125.2 125.2 125.2 125.2 125.2 125.2 125.2 125.2 125.2 125.2 125.2 125.2 125.2 125.2 125.2 125.2 125.2 125.2 125.2 125.2 125.2 125.2 125.21 125.21 125.21 125.21 125.21 125.21 125.21 125.21 125.21 125.21 125.21 125.27 126.85 129.64 130.05 129.87 129.85 129.93 130.02 128.97 125.94 125.21 125.33 127.2 129.29 129.17 128.98 129.31 129.57 129.41 129.07 128.76 128.58 128.68 128.85 128.91 129.21 129.8 130.03 129.87 129.68 129.4 127.01 125.26 125.23 125.23 125.23 125.23 125.23 125.23 125.23 125.23 125.23 125.23 125.23 125.23 125.23 125.23 125.47 127.82 131.63 133.12 138.97 147.7 156.33 164.51 173.3 181.56 186.35 189.63 192.73 195.83 198.82 201.34 203.13 204.84 207.49 210.47 213.44 216.27 218.69 220.81 222.89 225.05 227.16 228.98 230.27 231.23 232.26 233.28 234.09 234.45 234.73 234.85 234.99 234.93 234.74 234.34 233.77 233.12 232.4 231.51 230.48 229.12 227.38 224.9 222.23 219.67 217.13 214.89 213 210.83 208.64 206.37 204.03 200.66 196.21 191.05 189.64 188.9 186 183.98 184.38 185.28 186.41 188.56 190.75 191.76 191.96 191.98 191.84 191.37 190.61 189.55 188.32 187.28 186.54 185.97 185.39 184.9 184.44 183.96 183.34 182.59 181.79 -9999 -9999 -9999 -9999 -9999 -9999 -9999 -9999 -9999 -9999 -9999
-9999 -9999 -9999 -9999 -9999 180.98 181 181.03 181.07 181.12 181.23 181.29 181.31 181.39 181.42 181.49 181.63 181.81 181.97 182.02 181.96 181.92 181.99 182.16 182.45 182.71 182.9 182.96 182.94 182.65 182.24 181.84 181.53 181.12 180.61 180.3 179.68 179.02 178.06 177.11 176.27 175.58 175.09 174.54 173.51 172.09 170.58 169.01 167.31 165.67 164.53 163.71 162.93 162.06 161.13 160.24 159.36 158.44 157.78 157.29 157.03 156.7 156.09 155.24 154.21 153.34 152.72 152.28 151.86 151.31 150.52 149.6 148.88 148.43 148.01 147.64 147.2 146.64 146.15 145.81 145.36 144.89 144.46 143.99 143.52 143.08 142.66 142.17 141.71 141.3 140.9 140.44 139.94 139.46 138.91 138.42 138 137.67 137.33 137.01 136.71 136.38 136.06 135.64 135.24 134.79 134.31 133.91 133.62 133.49 133.37 133.21 133 132.79 132.54 132.29 132.28 132.57 132.62 132.67 132.89 133.08 132.89 132.69 132.55 132.54 132.68 132.64 132.35 132.23 132.08 132.24 132.64 132.16 130.01 128.65 128.44 128.52 128.74 128.86 128.86 128.77 128.58 128.19 127.85 127.82 127.94 126.97 125.61 125.37 125.26 125.28 126.43 127.92 128.36 128.62 128.59 128.32 127.97 127.78 127.9 128.47 129.03 129.27 129.49 129.5 129.66 130.88 132.32 132.92 132.76 132.78 132.53 130.01 126.8 126.24 126.29 126.19 125.64 125.47 125.47 125.47 125.47 125.47 125.47 125.47 125.47 125.47 125.53 126.44 126.97 127.01 126.65 125.61 125.47 125.47 125.47 125.47 125.47 125.58 126.55 127.74 127.85 127.8 127.92 128.33 129.19 130.13 130.8 130.89 130.8 130.89 131 130.98 130.84 130.63 130.14 129.57 127.38 125.54 125.2 125.19 125.2 125.2 125.2 125.2 125.2 125.2 125.2 125.2 125.2 125.2 125.2 125.2 125.2 125.2 125.2 125.2 125.2 125.2 125.2 125.2 125.2 125.2 125.2 125.2 125.2 125.2 125.2 125.2 125.2 125.2 125.2 125.2 125.2 125.2 125.2 125.2 125.2 125.2 125.2 125.2 125.21 125.21 125.21 125.21 125.21 125.21 125.38 127.72 129.98 129.99 129.76 129.76 130.03 130.15 129.61 126.63 125.24 125.25 126.39 128.86 129.21 129.01 129.31 129.54 129.38 129 128.63 128.45 128.65 128.81 128.89 129.29 129.81 129.89 129.54 129.67 128.81 126.02 125.22 125.22 125.23 125.23 125.23 125.23 125.23 125.23 125.22 125.22 125.23 125.23 125.23 125.23 125.23 125.94 129.49 132.23 134.11 141.28 150.44 159.12 167.46 176.12 184.1 188.74 192.29 195.95 199.54 202.86 205.7 208.02 209.98 212.37 215.2 218.02 220.66 223.09 225.33 227.37 229.18 230.69 231.72 232.47 233.23 234.05 234.74 235.23 235.36 235.45 235.47 235.51 235.3 234.76 234.11 233.41 232.63 231.77 230.77 229.64 228.29 226.68 224.4 222.06 219.71 217.49 215.51 213.45 211.1 208.89 206.36 203.7 199.84 194.57 189.66 188.97 187.63 184.74 182.65 182.88 183.27 183.9 186.51 188.95 190.13 190.37 190.23 189.83 189.02 187.93 186.68 185.42 184.5 183.92 183.44 183.07 182.81 182.52 182.14 181.64 181.05 180.32 -9999 -9999 -9999 -9999 -9999 -9999 -9999 -9999 -9999 -9999 -9999
-9999 -9999 -9999 -9999 -9999 180.91 180.99 181.05 181.1 181.16 181.25 181.32 181.35 181.43 181.47 181.5 181.63 181.79 181.94 182.01 182.01 182.01 182.07 182.19 182.4 182.56 182.7 182.72 182.67 182.38 182.02 181.67 181.27 180.8 180.23 179.8 179.24 178.53 177.59 176.58 175.78 175.22 174.79 173.91 172.49 171.02 169.6 168.14 166.63 165.29 164.33 163.51 162.61 161.69 160.7 159.82 159.08 158.21 157.64 157.27 156.93 156.32 155.53 154.71 153.86 153.18 152.71 152.29 151.83 151.24 150.49 149.65 149 148.49 147.96 147.49 147.01 146.51 146.09 145.86 145.69 145.46 145.03 144.35 143.82 143.37 142.82 142.28 141.82 141.38 140.99 140.52 139.97 139.4 138.84 138.33 137.92 137.59 137.24 136.93 136.59 136.19 135.78 135.42 135.09 134.68 134.25 133.89 133.65 133.5 133.34 133.18 133.03 132.79 132.54 132.3 132.38 132.69 132.77 132.85 133.09 133.36 133.32 133.23 133.22 133.15 133.08 132.94 132.84 132.69 132.55 132.58 132.62 131.48 129.49 128.61 128.52 128.65 128.92 129.02 128.99 128.84 128.59 128.13 127.79 127.77 127.84 126.95 125.43 125.25 125.23 125.34 126.74 127.92 128.34 128.53 128.42 128.13 127.91 127.83 128.17 128.85 129.27 129.42 129.59 129.64 130.21 131.77 132.85 133.06 132.81 133 132.04 128.73 126.39 126.28 126.29 125.99 125.49 125.47 125.47 125.47 125.47 125.47 125.47 125.47 125.47 125.47 125.58 126.47 126.9 126.98 126.8 125.96 125.61 125.55 125.54 125.54 125.49 125.78 126.93 127.82 127.77 127.83 128 128.72 129.67 130.28 130.77 130.87 130.79 130.85 130.98 130.93 130.78 130.58 130.01 129.33 126.91 125.4 125.19 125.19 125.19 125.19 125.19 125.19 125.2 125.2 125.2 125.2 125.2 125.2 125.2 125.2 125.2 125.2 125.2 125.2 125.2 125.2 125.2 125.2 125.2 125.2 125.2 125.2 125.2 125.2 125.2 125.2 125.2 125.2 125.2 125.2 125.2 125.2 125.2 125.2 125.2 125.2 125.2 125.2 125.2 125.2 125.2 125.2 125.2 125.2 125.59 128.37 130.01 129.85 129.66 129.7 130 130.05 129.93 127.69 125.33 125.21 125.68 128.11 129.32 129.1 129.31 129.54 129.24 128.89 128.52 128.39 128.62 128.78 128.85 129.35 129.77 129.73 129.47 129.81 128.05 125.52 125.22 125.22 125.22 125.22 125.22 125.22 125.22 125.22 125.22 125.22 125.22 125.22 125.22 125.22 125.24 126.97 130.94 132.54 136.01 144.06 153.09 161.8 170.36 179.01 186.24 190.92 195.09 199.32 203.25 206.77 209.92 212.63 215.03 217.44 220.15 222.92 225.42 227.64 229.56 231.09 232.18 233.09 233.74 234.36 234.98 235.47 235.78 235.98 236.04 236.05 236.01 235.91 235.54 234.73 234.04 233.23 232.24 231.16 229.96 228.6 227 225.1 223.1 221.1 219.03 216.83 214.64 212.44 210.17 207.84 205.16 202.33 198.47 192.76 188.52 188.27 186.07 182.93 181.24 181.22 180.92 181.27 184.46 186.85 187.9 188.25 187.95 187.18 186.01 184.75 183.65 182.7 182.13 181.74 181.39 181.17 181.06 180.88 180.63 180.26 179.79 179.13 -9999 -9999 -9999 -9999 -9999 -9999 -9999 -9999 -9999 -9999 -9999
-9999 -9999 -9999 -9999 -9999 180.73 180.91 181.06 181.11 181.15 181.22 181.31 181.38 181.44 181.46 181.48 181.62 181.77 181.85 181.95 182.04 182.08 182.12 182.17 182.27 182.34 182.43 182.41 182.27 182.02 181.68 181.27 180.79 180.29 179.72 179.27 178.77 177.97 177.08 176.09 175.4 174.9 174.2 172.96 171.42 170.07 168.75 167.4 166.07 164.97 164.12 163.28 162.3 161.3 160.31 159.49 158.81 158 157.48 157.15 156.63 155.93 155.23 154.54 153.85 153.27 152.82 152.26 151.69 151.02 150.27 149.62 149.09 148.5 147.97 147.58 147.26 146.78 146.37 146.32 146.2 145.74 145.12 144.48 143.89 143.41 142.94 142.46 141.94 141.47 141.04 140.52 139.93 139.32 138.77 138.32 137.94 137.57 137.18 136.91 136.51 136.07 135.66 135.3 134.98 134.6 134.24 133.93 133.69 133.5 133.31 133.17 133.06 132.78 132.54 132.31 132.48 132.78 132.86 132.92 133.13 133.39 133.39 133.44 133.58 133.33 133.09 133.01 132.93 132.76 132.61 132.64 132.4 130.69 128.99 128.55 128.6 128.77 129.03 129.08 129 128.81 128.54 128.1 127.77 127.75 127.79 126.82 125.36 125.22 125.23 125.45 127.04 127.9 128.3 128.39 128.23 128.01 127.89 128.01 128.54 129.18 129.44 129.62 129.81 129.94 131.02 132.56 133.21 133.14 133.01 133.07 131.19 127.61 126.26 126.29 126.13 125.66 125.47 125.47 125.47 125.47 125.47 125.47 125.47 125.47 125.47 125.47 125.52 125.94 126.41 126.76 126.77 126.43 125.93 125.83 125.82 125.78 125.63 126.12 127.24 127.69 127.62 127.79 128.04 129 130.02 130.45 130.79 130.87 130.8 130.91 131.08 130.95 130.73 130.49 129.88 128.99 126.51 125.3 125.19 125.19 125.19 125.19 125.19 125.19 125.19 125.19 125.19 125.19 125.19 125.2 125.2 125.2 125.2 125.2 125.2 125.2 125.2 125.2 125.2 125.2 125.2 125.2 125.2 125.2 125.2 125.2 125.2 125.2 125.2 125.2 125.2 125.2 125.2 125.2 125.2 125.2 125.2 125.2 125.2 125.2 125.2 125.2 125.2 125.2 125.2 125.21 126.06 129.19 130.13 129.82 129.62 129.63 129.85 129.91 130.03 128.93 125.67 125.21 125.32 127 129.17 129.2 129.34 129.47 129.11 128.82 128.47 128.34 128.58 128.73 128.88 129.35 129.66 129.6 129.67 129.72 127.16 125.31 125.22 125.22 125.22 125.22 125.22 125.22 125.22 125.22 125.22 125.22 125.22 125.22 125.22 125.22 125.45 128.55 131.84 132.93 138.18 146.66 155.99 165.74 174.63 181.76 187.49 192.43 197.34 202.25 206.7 210.58 214.05 217.24 220.2 222.79 225.28 227.77 230.06 231.68 232.81 233.75 234.46 235.12 235.69 236.17 236.47 236.54 236.57 236.66 236.75 236.69 236.56 236.25 235.75 234.9 234.14 233.08 231.85 230.46 228.84 227.06 224.93 222.77 220.78 218.73 216.53 214.14 211.88 209.72 207.58 205.39 203.12 200.71 196.75 190.94 187.54 187.51 184.39 180.73 179.4 178.91 178.36 179.02 182.57 184.46 185.15 185.31 184.85 183.91 182.66 181.57 180.83 180.26 179.93 179.7 179.51 179.43 179.41 179.3 179.14 178.92 178.56 178.02 -9999 -9999 -9999 -9999 -9999 -9999 -9999 -9999 -9999 -9999 -9999
-9999 -9999 -9999 -9999 -9999 180.59 180.79 181 181.08 181.09 181.15 181.25 181.36 181.42 181.39 181.4 181.56 181.7 181.75 181.85 182.02 182.1 182.12 182.1 182.1 182.04 182.02 182.01 181.86 181.65 181.35 180.86 180.3 179.77 179.21 178.7 178.19 177.42 176.62 175.77 175.16 174.48 173.35 171.94 170.54 169.37 168.12 166.84 165.66 164.66 163.83 162.97 161.96 160.99 160.09 159.38 158.67 157.77 157.22 156.87 156.39 155.79 155.19 154.6 153.98 153.45 152.87 152.16 151.51 150.91 150.25 149.77 149.39 148.81 148.26 147.78 147.42 147 146.64 146.43 146.07 145.6 145.05 144.45 143.9 143.41 143.04 142.6 142.08 141.6 141.12 140.56 139.93 139.33 138.82 138.4 138.01 137.63 137.25 136.99 136.57 136.15 135.76 135.37 135.01 134.61 134.29 133.98 133.73 133.48 133.31 133.2 133.06 132.78 132.54 132.36 132.64 132.88 132.93 132.96 133.07 133.16 133.23 133.43 133.64 133.36 133.14 133.1 132.91 132.67 132.58 132.64 132.01 130.03 128.71 128.51 128.66 128.86 129.04 129.05 128.95 128.75 128.48 128.09 127.78 127.71 127.73 126.7 125.33 125.22 125.22 125.47 127.07 127.88 128.23 128.24 128.1 127.96 127.98 128.34 128.92 129.37 129.55 129.79 130.06 130.56 131.99 133.21 133.44 133.22 133.27 132.9 130.02 126.86 126.24 126.21 125.77 125.49 125.47 125.47 125.47 125.47 125.47 125.47 125.47 125.47 125.47 125.47 125.48 125.55 125.71 125.92 126.02 126.04 126.02 126.14 126.2 126.15 125.9 126.58 127.71 127.75 127.58 127.73 128.13 129.25 130.24 130.71 130.89 130.89 130.81 130.86 130.96 130.88 130.72 130.4 129.72 128.46 126.01 125.23 125.19 125.19 125.19 125.19 125.19 125.19 125.19 125.19 125.19 125.19 125.19 125.19 125.19 125.19 125.19 125.2 125.2 125.2 125.2 125.2 125.2 125.2 125.2 125.2 125.2 125.2 125.2 125.2 125.2 125.2 125.2 125.2 125.2 125.2 125.2 125.2 125.2 125.2 125.2 125.2 125.2 125.2 125.2 125.2 125.2 125.2 125.2 125.26 126.93 129.82 130.19 129.81 129.61 129.57 129.74 129.87 130 129.62 126.54 125.24 125.22 125.88 128.43 129.21 129.35 129.41 129.11 128.8 128.42 128.31 128.59 128.74 128.97 129.3 129.52 129.58 129.98 129.27 126.31 125.24 125.22 125.22 125.22 125.22 125.22 125.22 125.22 125.22 125.22 125.22 125.22 125.22 125.22 125.23 126.19 130.25 132.22 133.95 140.4 149.16 158.72 168.51 177.42 183.7 188.67 193.65 199.08 204.62 209.75 214.21 218.25 222.02 225.36 228.07 230.26 232.07 233.54 234.47 235.17 235.86 236.46 236.97 237.34 237.5 237.58 237.48 237.3 237.33 237.41 237.31 237.1 236.6 235.7 234.58 233.3 231.88 230.38 228.67 226.63 224.29 221.79 219.61 217.52 215.26 213.03 210.92 208.84 206.8 204.87 202.99 201.13 199.08 194.88 189.16 186.7 186.67 182.97 178.79 177.17 176.71 176.1 177.14 180.73 182.08 182.3 182.05 181.46 180.67 179.7 178.89 178.39 178.05 177.83 177.74 177.68 177.69 177.73 177.66 177.59 177.47 177.21 176.8 -9999 -9999 -9999 -9999 -9999 -9999 -9999 -9999 -9999 -9999 -9999
-9999 -9999 -9999 -9999 -9999 180.52 180.7 180.87 180.99 181.03 181.09 181.19 181.29 181.35 181.32 181.31 181.46 181.6 181.68 181.77 181.95 182.07 182.06 181.99 181.87 181.75 181.67 181.63 181.49 181.31 181.05 180.5 179.85 179.31 178.76 178.17 177.6 176.94 176.22 175.47 174.69 173.73 172.46 171.14 169.99 168.98 167.74 166.46 165.37 164.43 163.58 162.71 161.65 160.68 159.89 159.23 158.42 157.51 156.98 156.64 156.23 155.71 155.1 154.47 153.96 153.45 152.82 152.22 151.69 151.22 150.51 149.83 149.28 148.65 148.08 147.66 147.42 147.18 146.84 146.35 145.83 145.41 144.96 144.46 143.93 143.44 143.05 142.63 142.21 141.75 141.21 140.61 140 139.47 138.97 138.49 138.07 137.7 137.33 137.06 136.67 136.28 135.91 135.52 135.11 134.71 134.36 134.04 133.8 133.54 133.35 133.24 133.06 132.82 132.61 132.47 132.75 132.93 132.95 132.96 133.02 133.07 133.14 133.3 133.54 133.36 133.19 133.19 132.99 132.68 132.6 132.57 131.52 129.58 128.55 128.5 128.71 128.92 129 129 128.92 128.72 128.47 128.11 127.84 127.72 127.75 126.73 125.33 125.21 125.21 125.41 126.97 127.84 128.17 128.15 128.05 127.99 128.22 128.69 129.19 129.46 129.65 129.97 130.42 131.43 132.87 133.62 133.6 133.36 133.48 132.39 128.73 126.46 126.18 125.85 125.51 125.47 125.47 125.47 125.47 125.47 125.47 125.47 125.47 125.47 125.47 125.47 125.47 125.47 125.48 125.52 125.55 125.59 125.73 126.06 126.32 126.32 126.09 126.86 127.97 128.13 128.02 128.12 128.61 129.5 130.36 130.98 131.15 131.06 130.91 130.82 130.8 130.78 130.7 130.28 129.5 127.66 125.47 125.19 125.19 125.19 125.19 125.19 125.19 125.19 125.19 125.19 125.19 125.19 125.19 125.19 125.19 125.19 125.19 125.19 125.19 125.19 125.19 125.2 125.2 125.2 125.2 125.2 125.19 125.19 125.2 125.2 125.2 125.2 125.2 125.2 125.2 125.2 125.2 125.2 125.2 125.2 125.2 125.2 125.2 125.2 125.2 125.2 125.2 125.2 125.2 125.49 128.26 130.23 130.23 129.86 129.6 129.45 129.59 129.89 129.96 129.93 128.05 125.46 125.2 125.34 127.09 128.88 129.29 129.39 129.16 128.81 128.42 128.29 128.58 128.8 129.06 129.24 129.39 129.69 130.14 128.47 125.71 125.22 125.22 125.22 125.22 125.22 125.22 125.22 125.22 125.22 125.22 125.22 125.22 125.22 125.22 125.36 127.73 131.5 132.7 136.36 143.55 151.81 161.14 170.65 180.03 186.55 191 195.59 201.04 206.73 212.36 217.66 222.37 226.6 230.1 232.41 233.8 234.81 235.71 236.4 236.92 237.51 238.01 238.24 238.36 238.41 238.43 238.29 237.95 237.88 237.82 237.54 236.9 235.59 233.95 232.3 230.55 229.03 227.5 225.6 223.22 220.67 218.15 216.05 214.13 212.09 210.09 208.27 206.41 204.44 202.44 200.62 199.01 197.19 192.84 187.52 185.98 185.71 181.71 177.37 175.2 174.73 174.55 175.9 178.85 179.62 179.54 179.1 178.51 177.9 177.2 176.62 176.29 176.07 175.9 175.89 175.86 175.88 175.97 176 176.01 175.97 175.78 175.44 -9999 -9999 -9999 -9999 -9999 -9999 -9999 -9999 -9999 -9999 -9999
-9999 -9999 -9999 -9999 -9999 180.34 180.6 180.75 180.88 180.99 181.09 181.17 181.26 181.28 181.28 181.26 181.37 181.54 181.65 181.76 181.88 181.98 181.96 181.82 181.62 181.51 181.4 181.3 181.16 180.99 180.75 180.15 179.39 178.8 178.3 177.7 176.98 176.37 175.64 174.79 173.83 172.78 171.66 170.63 169.74 168.83 167.59 166.33 165.25 164.34 163.42 162.4 161.27 160.29 159.55 158.87 158.07 157.31 156.78 156.44 155.85 155.34 154.86 154.37 153.94 153.35 152.6 152.03 151.53 151.03 150.46 149.82 149.08 148.49 147.95 147.51 147.21 146.98 146.68 146.23 145.79 145.42 145.05 144.52 143.94 143.42 143.01 142.59 142.19 141.73 141.23 140.74 140.22 139.64 139.04 138.51 138.09 137.73 137.36 137.06 136.68 136.31 135.97 135.62 135.22 134.81 134.41 134.11 133.9 133.63 133.44 133.31 133.09 132.87 132.77 132.62 132.78 132.88 132.89 132.92 132.98 133.11 133.18 133.22 133.46 133.4 133.21 133.2 132.96 132.66 132.6 132.44 131.11 129.21 128.44 128.52 128.75 128.92 128.96 128.98 128.89 128.71 128.46 128.15 127.91 127.76 127.83 126.78 125.34 125.21 125.21 125.36 126.91 127.79 128.12 128.09 128.02 128.1 128.47 128.94 129.3 129.5 129.73 130.18 131 132.33 133.54 133.89 133.72 133.6 133.56 131.4 127.6 126.24 125.86 125.51 125.47 125.47 125.47 125.47 125.47 125.47 125.47 125.47 125.47 125.47 125.47 125.47 125.47 125.47 125.47 125.47 125.47 125.47 125.51 125.71 126.21 126.42 126.37 126.92 127.6 127.97 128.12 128.3 128.7 129.33 130.36 131.27 131.47 131.41 131.25 131.07 130.86 130.75 130.61 130.07 129.15 126.77 125.27 125.19 125.19 125.19 125.19 125.19 125.19 125.19 125.19 125.19 125.19 125.19 125.19 125.19 125.19 125.19 125.19 125.19 125.19 125.19 125.19 125.19 125.19 125.19 125.19 125.19 125.19 125.19 125.19 125.19 125.19 125.19 125.19 125.19 125.19 125.2 125.2 125.2 125.2 125.2 125.2 125.2 125.2 125.2 125.2 125.2 125.2 125.2 125.21 126.07 129.47 130.4 130.25 129.91 129.57 129.34 129.35 129.74 129.91 130.02 129.39 126.46 125.26 125.21 125.94 128.01 129.11 129.45 129.22 128.82 128.42 128.33 128.6 128.83 129.08 129.16 129.38 129.83 129.92 127.31 125.37 125.22 125.22 125.22 125.22 125.22 125.22 125.22 125.21 125.21 125.21 125.21 125.22 125.22 125.22 125.86 129.84 132.23 133.87 139.46 146.88 154.98 164.09 174.25 183.3 190.16 194.79 198.83 203.63 209.01 214.73 220.63 226.05 230.7 233.67 235.01 235.8 236.57 237.24 237.77 238.08 238.48 238.91 239.15 239.17 239.09 239.03 238.96 238.53 238.1 237.4 236.26 234.63 232.34 230.17 228.33 226.79 225.44 224.02 222.26 220.06 217.67 215.28 213.06 211.06 209.14 207.34 205.77 204.18 202.32 200.16 198.14 196.43 194.67 190.61 186.04 185.28 184.75 180.87 176.54 173.91 173.01 173.16 174.87 177.06 177.27 176.98 176.55 176.12 175.68 175.13 174.67 174.4 174.28 174.16 174.16 174.08 174.04 174.15 174.28 174.39 174.47 174.35 173.99 -9999 -9999 -9999 -9999 -9999 -9999 -9999 -9999 -9999 -9999 -9999
-9999 -9999 -9999 -9999 -9999 180.08 180.48 180.69 180.81 180.98 181.14 181.22 181.28 181.27 181.27 181.29 181.35 181.54 181.68 181.79 181.88 181.92 181.87 181.65 181.44 181.35 181.23 181.06 180.88 180.68 180.42 179.84 178.95 178.16 177.63 177.14 176.29 175.5 174.86 174.09 173.07 171.97 171.06 170.35 169.55 168.5 167.21 165.96 164.86 163.92 162.95 161.95 160.94 160.18 159.67 159.03 158.16 157.31 156.56 156.23 155.36 154.75 154.34 153.92 153.5 152.92 152.3 151.83 151.34 150.82 150.27 149.69 149.04 148.52 147.98 147.48 147.05 146.64 146.38 146.02 145.56 145.12 144.75 144.26 143.68 143.18 142.82 142.46 142.06 141.62 141.2 140.8 140.34 139.68 139.01 138.5 138.07 137.68 137.3 136.97 136.61 136.27 135.97 135.66 135.28 134.85 134.48 134.22 134.02 133.75 133.55 133.38 133.16 132.96 132.94 132.74 132.8 132.85 132.87 132.93 132.93 133.14 133.29 133.24 133.41 133.36 133.26 133.12 132.87 132.63 132.55 132.29 130.8 128.9 128.37 128.52 128.76 128.91 128.96 128.96 128.86 128.67 128.42 128.14 127.9 127.73 127.8 126.76 125.33 125.2 125.21 125.35 126.86 127.74 128.05 128.04 128.04 128.27 128.64 129.07 129.4 129.59 129.86 130.56 131.8 133.22 134.03 134.15 133.86 133.88 133.39 130.06 126.84 125.94 125.51 125.47 125.47 125.47 125.47 125.47 125.47 125.47 125.47 125.47 125.47 125.47 125.47 125.47 125.47 125.47 125.47 125.47 125.47 125.47 125.47 125.5 125.95 126.44 126.63 126.99 127.27 127.56 127.73 127.84 128.1 128.87 130.35 131.5 131.59 131.57 131.46 131.21 130.88 130.68 130.37 129.73 128.73 126.19 125.21 125.19 125.19 125.19 125.19 125.19 125.19 125.19 125.19 125.19 125.19 125.19 125.19 125.19 125.19 125.19 125.19 125.19 125.19 125.19 125.19 125.19 125.19 125.19 125.19 125.19 125.19 125.19 125.19 125.19 125.19 125.19 125.19 125.19 125.19 125.19 125.19 125.19 125.19 125.19 125.2 125.2 125.2 125.2 125.2 125.2 125.2 125.2 125.28 127.05 129.95 130.37 130.15 129.88 129.54 129.31 129.33 129.52 129.81 129.93 129.89 128.21 125.69 125.2 125.4 126.84 128.62 129.52 129.27 128.76 128.37 128.4 128.61 128.83 129.03 129.14 129.49 129.97 129.04 126.15 125.23 125.21 125.21 125.22 125.22 125.22 125.22 125.21 125.21 125.21 125.21 125.21 125.21 125.21 125.28 127.02 131.37 132.55 135.53 142.31 149.95 157.87 167.43 178.17 186.79 194.14 199.58 203.42 207.45 212.02 217.3 223.29 229.17 233.68 235.76 236.6 237.25 238 238.39 238.64 238.77 239.13 239.57 239.84 239.78 239.63 239.48 239.14 238.23 236.92 235.16 233.02 230.7 228.32 226.26 224.75 223.58 222.26 220.8 219.14 217.11 214.84 212.68 210.49 208.37 206.46 204.72 203.14 201.65 199.99 197.97 195.78 193.72 191.89 188.41 184.82 184.58 183.71 180.06 175.56 172.3 171.44 171.78 173.52 175.15 175.07 174.72 174.43 174.18 173.81 173.33 172.94 172.69 172.6 172.49 172.48 172.35 172.23 172.29 172.46 172.71 172.91 172.87 172.47 -9999 -9999 -9999 -9999 -9999 -9999 -9999 -9999 -9999 -9999 -9999
-9999 -9999 -9999 -9999 -9999 179.96 180.38 180.64 180.82 181 181.21 181.32 181.34 181.32 181.34 181.4 181.48 181.62 181.78 181.88 181.93 181.94 181.85 181.62 181.39 181.25 181.1 180.81 180.59 180.32 180.05 179.51 178.47 177.49 176.9 176.42 175.58 174.8 174.17 173.47 172.48 171.31 170.3 169.6 168.67 167.55 166.42 165.43 164.53 163.57 162.67 161.77 160.78 160.24 159.99 159.42 158.39 157.41 156.54 156.06 155.22 154.52 154.09 153.71 153.28 152.74 152.24 151.73 151.16 150.62 150.08 149.51 148.96 148.57 148.16 147.64 147.13 146.59 146.27 146.05 145.66 145.01 144.47 144.01 143.49 143.03 142.56 142.14 141.77 141.39 141.04 140.67 140.24 139.56 138.95 138.48 138.04 137.61 137.24 136.87 136.5 136.18 135.9 135.63 135.29 134.95 134.68 134.53 134.47 134.2 133.85 133.58 133.31 133.09 132.94 132.64 132.74 132.82 132.85 132.89 132.84 132.87 133.06 133.21 133.26 133.16 133.11 133.02 132.77 132.59 132.47 132.24 130.67 128.7 128.34 128.57 128.79 128.91 128.97 128.94 128.84 128.65 128.36 128.07 127.82 127.63 127.71 126.71 125.32 125.2 125.2 125.35 126.84 127.69 128 128.03 128.13 128.4 128.76 129.2 129.56 129.74 130.12 131.18 132.75 133.98 134.41 134.36 134.07 134.12 132.81 128.74 126.36 125.66 125.47 125.47 125.47 125.47 125.47 125.47 125.47 125.47 125.47 125.47 125.47 125.47 125.47 125.47 125.47 125.47 125.47 125.47 125.47 125.47 125.47 125.47 125.67 126.18 126.44 126.69 127.05 127.63 127.89 127.92 128.13 128.96 130.64 131.6 131.61 131.65 131.52 131.04 130.63 130.39 130.08 129.54 128.33 125.91 125.2 125.18 125.18 125.19 125.19 125.19 125.19 125.19 125.19 125.19 125.19 125.19 125.19 125.19 125.19 125.19 125.19 125.19 125.19 125.19 125.19 125.19 125.19 125.19 125.19 125.19 125.19 125.19 125.19 125.19 125.19 125.19 125.19 125.19 125.19 125.19 125.19 125.19 125.19 125.19 125.19 125.19 125.19 125.19 125.19 125.2 125.2 125.2 125.52 128.45 130.26 130.3 130.1 129.89 129.5 129.31 129.34 129.34 129.71 130.02 130.05 129.31 126.89 125.33 125.24 125.84 127.59 129.31 129.25 128.66 128.33 128.46 128.59 128.77 128.94 129.19 129.64 129.93 127.65 125.47 125.21 125.21 125.21 125.21 125.21 125.21 125.21 125.21 125.21 125.21 125.21 125.21 125.21 125.21 125.55 128.81 132.16 133.03 137.53 144.68 152.49 161.1 171.23 182.03 190.57 198.47 204.73 208.85 212.41 216.15 220.65 226.07 231.67 235.61 237.27 238.04 238.69 239.13 239.15 239.2 239.36 239.71 240.05 240.29 240.2 239.83 239.01 237.66 235.87 233.7 231.26 228.85 226.63 224.49 222.86 221.77 220.58 219.28 217.8 216.25 214.45 212.36 210.25 208.11 205.97 203.9 202.1 200.41 198.85 197.35 195.65 193.67 191.47 189.34 186.32 183.82 183.86 182.37 179 174.74 170.93 170.02 170.42 171.92 173.13 173.03 172.78 172.62 172.41 172.07 171.66 171.31 171.1 170.98 170.82 170.83 170.67 170.51 170.47 170.58 170.87 171.14 171.14 170.75 -9999 -9999 -9999 -9999 -9999 -9999 -9999 -9999 -9999 -9999 -9999
-9999 -9999 -9999 -9999 -9999 179.92 180.28 180.55 180.81 181.01 181.24 181.41 181.46 181.45 181.47 181.58 181.69 181.81 181.91 181.97 181.98 182.02 181.93 181.72 181.48 181.26 181.06 180.56 180.23 179.88 179.55 178.93 177.84 176.85 176.23 175.7 174.95 174.15 173.32 172.55 171.68 170.75 169.92 169.13 168.12 167.08 166.07 165.22 164.36 163.33 162.51 161.64 160.61 160.06 159.73 159.17 158.32 157.63 156.85 155.99 155.42 154.61 154.18 153.85 153.4 152.85 152.39 151.8 151.17 150.63 150.13 149.46 148.82 148.35 147.87 147.35 146.96 146.55 146.3 146.14 145.69 144.97 144.47 144 143.39 142.94 142.46 141.92 141.49 141.13 140.77 140.43 140.04 139.43 138.89 138.46 138.05 137.65 137.26 136.83 136.4 136.06 135.79 135.69 135.55 135.35 135.16 135.16 135.24 135.01 134.61 134.25 133.85 133.47 133.16 132.75 132.65 132.72 132.75 132.8 132.72 132.83 133.03 133.18 133.18 133.05 132.99 132.9 132.67 132.54 132.42 132.22 130.72 128.62 128.31 128.59 128.79 128.92 128.97 128.93 128.8 128.6 128.3 128.02 127.73 127.54 127.63 126.63 125.3 125.19 125.2 125.33 126.87 127.75 128.03 128.08 128.25 128.51 128.91 129.35 129.7 129.87 130.56 132.1 133.67 134.54 134.72 134.49 134.37 134.18 131.77 127.67 126.05 125.55 125.47 125.47 125.47 125.47 125.47 125.47 125.47 125.47 125.47 125.47 125.47 125.47 125.47 125.47 125.47 125.47 125.47 125.47 125.47 125.47 125.47 125.47 125.53 125.84 126.06 126.11 126.43 127.36 127.86 128.01 128.38 129.3 130.87 131.71 131.72 131.64 131.42 130.9 130.56 130.14 129.66 129.28 127.72 125.39 125.18 125.18 125.18 125.18 125.18 125.18 125.18 125.18 125.18 125.18 125.19 125.19 125.19 125.19 125.19 125.19 125.19 125.19 125.19 125.19 125.19 125.19 125.19 125.19 125.19 125.19 125.19 125.19 125.19 125.19 125.19 125.19 125.19 125.19 125.19 125.19 125.19 125.19 125.19 125.19 125.19 125.19 125.19 125.19 125.19 125.19 125.19 125.19 125.9 129.22 130.42 130.32 130.05 129.8 129.49 129.38 129.31 129.2 129.56 129.96 129.98 129.87 128.47 126.04 125.21 125.33 126.28 128.49 129.22 128.67 128.4 128.51 128.58 128.67 128.9 129.29 129.77 129.58 126.43 125.25 125.21 125.21 125.21 125.21 125.21 125.21 125.21 125.21 125.21 125.21 125.21 125.21 125.21 125.24 126.36 130.64 132.41 134.37 140.67 148.22 156.02 165.71 176.04 185.69 194.36 202.7 209.72 214.38 218.05 221.39 224.97 229.21 233.84 237.18 238.67 239.3 239.8 239.81 239.7 239.73 239.86 240.11 240.36 240.35 239.62 238.14 236.28 234.16 231.92 229.45 226.93 224.67 222.75 221.2 220.1 219.06 217.9 216.64 215.27 213.85 212.21 210.27 208.22 206.08 203.87 201.68 199.72 197.93 196.35 194.91 193.35 191.6 189.64 187.58 184.73 183 183.05 180.66 177.72 174.14 170.23 168.8 169.18 170.51 171.25 171.19 171.04 170.94 170.76 170.45 170.14 169.84 169.59 169.44 169.21 169.21 169.07 168.92 168.8 168.71 168.82 168.98 168.9 168.56 -9999 -9999 -9999 -9999 -9999 -9999 -9999 -9999 -9999 -9999 -9999
-9999 -9999 -9999 -9999 -9999 179.85 180.15 180.42 180.68 180.95 181.22 181.44 181.58 181.59 181.57 181.69 181.85 181.96 181.97 181.96 182 182.07 182 181.81 181.6 181.34 181.06 180.49 179.92 179.47 178.98 178.1 177.14 176.32 175.68 175.01 174.18 173.39 172.69 172.13 171.43 170.69 170 169.11 168.02 166.99 166.05 165.18 164.11 162.91 162.06 161.24 160.4 159.88 159.44 158.94 158.4 157.93 157.11 156 155.51 154.79 154.37 153.95 153.53 153.03 152.53 151.86 151.35 150.94 150.4 149.57 148.77 148.23 147.6 147.02 146.62 146.25 145.98 145.73 145.28 144.8 144.38 143.88 143.21 142.72 142.22 141.68 141.28 140.94 140.53 140.17 139.84 139.35 138.88 138.47 138.11 137.71 137.28 136.84 136.42 136.06 135.82 136.03 136.06 135.86 135.66 135.55 135.42 135.31 135.27 135.16 134.89 134.45 133.84 133.26 132.69 132.63 132.62 132.62 132.7 132.95 133.2 133.35 133.34 133.08 132.91 132.77 132.59 132.5 132.36 132.05 130.17 128.43 128.29 128.57 128.78 128.94 129 128.92 128.77 128.57 128.29 128.01 127.69 127.5 127.6 126.51 125.26 125.19 125.19 125.29 126.88 127.85 128.09 128.19 128.39 128.65 129.06 129.46 129.74 130.08 131.33 133.15 134.47 134.97 135.01 134.64 134.73 133.93 130.41 126.86 125.87 125.5 125.47 125.47 125.47 125.47 125.47 125.47 125.47 125.47 125.47 125.47 125.47 125.47 125.47 125.47 125.47 125.47 125.47 125.47 125.47 125.47 125.47 125.47 125.48 125.6 125.76 125.88 126.17 126.97 127.59 127.94 128.35 129.32 130.82 131.67 131.63 131.4 131.16 130.85 130.55 130.06 129.53 128.92 127.24 125.31 125.18 125.18 125.18 125.18 125.18 125.18 125.18 125.18 125.18 125.18 125.18 125.18 125.18 125.18 125.18 125.18 125.18 125.19 125.19 125.19 125.19 125.19 125.19 125.19 125.19 125.19 125.19 125.19 125.19 125.19 125.19 125.19 125.19 125.19 125.19 125.19 125.19 125.19 125.19 125.19 125.19 125.19 125.19 125.19 125.19 125.19 125.19 125.22 126.63 129.78 130.36 130.25 129.92 129.72 129.41 129.38 129.19 129.05 129.39 129.79 129.93 130.08 129.46 127.59 125.45 125.21 125.44 127.13 129 128.78 128.53 128.55 128.52 128.61 128.94 129.4 129.83 128.97 125.82 125.21 125.21 125.21 125.21 125.21 125.21 125.21 125.21 125.21 125.21 125.21 125.21 125.21 125.21 125.41 127.89 131.89 132.65 136.37 143.71 151.6 159.63 168.79 179.46 189.42 198.68 207.13 214.22 219.59 224.07 227.63 230.54 233.4 236.4 238.67 239.69 240.1 240.38 240.29 240.24 240.25 240.22 240.2 239.86 238.72 236.6 234.09 231.77 229.57 227.42 225.06 222.71 220.75 219.39 218.46 217.55 216.64 215.61 214.53 213.25 211.87 210.36 208.55 206.53 204.37 202.12 199.86 197.69 195.85 194.28 192.78 191.22 189.58 187.96 186.12 183.38 182.27 182.08 178.82 175.98 173.01 169.46 167.85 168.15 169.17 169.62 169.62 169.54 169.47 169.31 169.05 168.81 168.54 168.24 168.05 167.79 167.68 167.56 167.4 167.2 166.9 166.76 166.59 166.3 165.92 -9999 -9999 -9999 -9999 -9999 -9999 -9999 -9999 -9999 -9999 -9999
-9999 -9999 -9999 -9999 -9999 179.76 180.02 180.25 180.49 180.84 181.2 181.46 181.55 181.54 181.45 181.58 181.86 182 182.01 182 182.06 182.08 182.04 181.94 181.68 181.38 181.02 180.39 179.68 179.11 178.4 177.41 176.58 175.9 175.25 174.54 173.84 173.19 172.56 172.04 171.3 170.54 169.82 168.97 167.9 166.88 166.04 165.1 163.84 162.55 161.68 160.99 160.43 159.99 159.57 159.14 158.65 158.01 157.08 156.09 155.59 155.08 154.5 153.93 153.59 153.07 152.45 151.91 151.62 151.27 150.5 149.55 148.88 148.36 147.76 147.06 146.54 146.11 145.73 145.32 144.89 144.48 144.05 143.54 142.89 142.37 141.9 141.45 141.07 140.74 140.34 139.92 139.63 139.25 138.87 138.5 138.14 137.71 137.3 136.99 136.78 136.42 135.98 136.17 136.02 135.68 135.37 135.09 134.89 134.79 134.8 134.89 135.06 135.19 134.94 134.18 133.35 132.7 132.55 132.54 132.69 133.11 133.41 133.5 133.45 133.04 132.78 132.64 132.53 132.45 132.31 131.36 129.03 128.19 128.28 128.57 128.78 128.92 129 128.92 128.75 128.56 128.28 127.98 127.67 127.48 127.58 126.36 125.23 125.18 125.19 125.26 126.83 127.94 128.16 128.34 128.55 128.84 129.21 129.53 129.83 130.64 132.41 134.13 135.08 135.33 135.22 134.96 134.97 133.21 128.98 126.35 125.71 125.48 125.47 125.47 125.47 125.47 125.47 125.47 125.47 125.47 125.47 125.47 125.47 125.47 125.47 125.47 125.47 125.47 125.47 125.47 125.47 125.47 125.47 125.47 125.47 125.47 125.51 125.71 126.19 126.95 127.53 127.86 128.27 129.15 130.46 131.55 131.49 131.26 131.16 130.94 130.55 130 129.42 128.48 126.67 125.39 125.18 125.18 125.18 125.18 125.18 125.18 125.18 125.18 125.18 125.18 125.18 125.18 125.18 125.18 125.18 125.18 125.18 125.18 125.18 125.18 125.18 125.18 125.18 125.18 125.18 125.18 125.19 125.19 125.19 125.19 125.19 125.19 125.19 125.19 125.19 125.19 125.19 125.19 125.19 125.19 125.19 125.19 125.19 125.19 125.19 125.19 125.19 125.33 127.59 130.12 130.26 130.11 129.83 129.56 129.19 129.25 129.01 128.94 129.23 129.55 129.79 130.1 129.88 128.85 126.38 125.31 125.21 126 128.4 128.9 128.68 128.54 128.45 128.63 129.02 129.47 129.65 128 125.58 125.21 125.21 125.21 125.21 125.21 125.21 125.21 125.2 125.2 125.2 125.21 125.21 125.21 125.22 126.01 129.73 132.36 133.82 140.08 148 156.13 164.59 173.61 183.72 194.1 203.99 211.75 218.41 224.46 229.91 234.03 236.45 237.86 238.89 239.87 240.23 240.51 240.8 240.78 240.74 240.58 240.09 239.04 237.26 234.77 231.89 229.28 227.05 224.98 222.93 220.75 218.88 217.58 216.8 216.06 215.29 214.54 213.76 212.77 211.49 210.15 208.6 206.74 204.77 202.77 200.6 198.4 196.2 194.13 192.37 190.8 189.26 187.69 186.22 184.59 182.13 181.55 180.78 177.45 174.77 171.85 168.72 166.99 167.16 167.84 168.28 168.4 168.36 168.25 168.09 167.88 167.67 167.42 167.08 166.83 166.52 166.3 166.11 165.85 165.61 165.24 164.88 164.33 163.79 163.36 -9999 -9999 -9999 -9999 -9999 -9999 -9999 -9999 -9999 -9999 -9999
-9999 -9999 -9999 -9999 -9999 179.67 179.9 180.12 180.37 180.74 181.17 181.36 181.28 181.22 181.21 181.4 181.79 182.02 182.08 182.07 182.13 182.16 182.19 182.14 181.8 181.32 180.89 180.25 179.47 178.77 177.91 176.91 176.18 175.61 174.98 174.41 173.93 173.29 172.5 171.74 170.95 170.21 169.48 168.72 167.77 166.82 165.9 164.82 163.56 162.37 161.58 161.08 160.66 160.17 159.75 159.33 158.76 158.06 157.12 156.2 155.62 155.25 154.56 154.02 153.62 153.07 152.57 152.22 151.96 151.5 150.56 149.71 149.21 148.66 147.84 147.11 146.62 146.31 145.92 145.29 144.63 144.13 143.72 143.23 142.65 142.14 141.7 141.28 140.9 140.54 140.14 139.68 139.43 139.14 138.9 138.64 138.21 137.72 137.41 137.3 137.16 136.65 135.98 135.77 135.48 135.09 134.7 134.39 134.18 134.11 134.1 134.18 134.32 134.59 135 135.15 134.44 133.38 132.72 132.68 132.92 133.32 133.55 133.54 133.36 132.95 132.67 132.53 132.48 132.38 132.24 130.65 128.52 128.15 128.3 128.55 128.74 128.89 128.98 128.91 128.75 128.55 128.24 127.93 127.62 127.48 127.56 126.21 125.21 125.18 125.18 125.23 126.77 127.98 128.25 128.49 128.72 129.09 129.42 129.67 130.14 131.62 133.56 134.94 135.51 135.66 135.36 135.38 134.92 132.06 127.71 126.11 125.6 125.47 125.47 125.47 125.47 125.47 125.47 125.47 125.47 125.47 125.47 125.47 125.47 125.47 125.47 125.47 125.47 125.47 125.47 125.47 125.47 125.47 125.47 125.47 125.47 125.47 125.47 125.52 126 126.86 127.26 127.51 127.93 128.56 129.84 131.44 131.43 131.3 131.54 131.45 130.94 130.18 129.38 128.11 125.98 125.22 125.18 125.18 125.18 125.18 125.18 125.18 125.18 125.18 125.18 125.18 125.18 125.18 125.18 125.18 125.18 125.18 125.18 125.18 125.18 125.18 125.18 125.18 125.18 125.18 125.18 125.18 125.18 125.18 125.18 125.18 125.18 125.19 125.19 125.19 125.19 125.19 125.19 125.19 125.19 125.19 125.19 125.19 125.19 125.19 125.19 125.19 125.19 125.62 128.5 130.3 130.26 129.99 129.81 129.51 129.15 129.17 128.93 128.88 129.18 129.53 129.63 129.95 129.98 129.44 127.83 125.71 125.19 125.47 127.57 128.91 128.8 128.53 128.43 128.67 129.05 129.48 129.07 126.73 125.37 125.2 125.21 125.21 125.21 125.21 125.21 125.21 125.2 125.2 125.2 125.2 125.2 125.2 125.29 127.2 131.24 132.58 136.47 144.1 152.44 160.82 169.55 178.41 188.37 199.33 208.52 215.59 222.28 228.79 234.63 238.74 240.27 240.44 240.39 240.5 240.64 240.96 241.19 241.13 240.71 239.73 238.15 235.72 232.83 229.83 226.98 224.66 222.75 221.03 219.12 217.12 215.82 215.11 214.56 213.94 213.31 212.73 212.12 211.18 209.85 208.4 206.74 204.85 202.97 201.04 199.01 196.94 194.85 192.74 190.74 189.02 187.48 185.99 184.65 183.14 181.08 180.82 179.33 176.59 174.38 171.58 168.07 166.02 166.12 166.66 167.21 167.47 167.41 167.24 167.08 166.89 166.68 166.43 166.01 165.62 165.23 164.95 164.68 164.34 164.07 163.69 163.18 162.41 161.66 161.19 -9999 -9999 -9999 -9999 -9999 -9999 -9999 -9999 -9999 -9999 -9999
-9999 -9999 -9999 -9999 -9999 179.58 179.83 180.08 180.33 180.69 181.05 181.12 180.95 180.96 181.1 181.33 181.71 181.97 182.12 182.18 182.18 182.25 182.33 182.28 181.94 181.27 180.75 180.03 179.21 178.35 177.3 176.45 175.79 175.2 174.66 174.27 173.84 173.2 172.25 171.26 170.58 169.99 169.42 168.73 167.78 166.8 165.67 164.4 163.29 162.4 161.78 161.32 160.76 160.14 159.68 159.28 158.86 158.21 157.15 156.15 155.57 155.26 154.56 154.02 153.59 153.17 152.82 152.36 151.96 151.46 150.65 149.98 149.45 148.77 147.94 147.28 146.92 146.62 146.07 145.31 144.6 144 143.49 143.01 142.56 142.09 141.65 141.25 140.81 140.4 139.98 139.55 139.3 139.08 138.94 138.76 138.23 137.73 137.54 137.36 136.78 136.14 135.72 135.33 134.92 134.52 134.17 133.91 133.74 133.63 133.59 133.64 133.74 133.92 134.25 134.86 135.36 134.46 133.34 132.92 133.18 133.48 133.48 133.29 133.13 132.82 132.58 132.49 132.42 132.3 132.11 130.07 128.41 128.18 128.32 128.53 128.73 128.89 128.97 128.89 128.73 128.51 128.18 127.85 127.56 127.48 127.52 126.04 125.19 125.17 125.18 125.29 127.03 128.04 128.35 128.57 128.84 129.24 129.61 129.87 130.9 132.82 134.54 135.53 135.88 135.9 135.58 135.7 134.47 130.69 126.92 125.96 125.52 125.47 125.47 125.47 125.47 125.47 125.47 125.47 125.47 125.47 125.47 125.47 125.47 125.47 125.47 125.47 125.47 125.47 125.47 125.47 125.47 125.47 125.47 125.47 125.47 125.47 125.47 125.47 125.68 126.33 126.74 127.09 127.38 127.86 129.59 131.51 131.5 131.41 131.78 131.79 131.27 130.36 129.42 127.87 125.6 125.18 125.18 125.18 125.18 125.18 125.18 125.18 125.18 125.18 125.18 125.18 125.18 125.18 125.18 125.18 125.18 125.18 125.18 125.18 125.18 125.18 125.18 125.18 125.18 125.18 125.18 125.18 125.18 125.18 125.18 125.18 125.18 125.18 125.18 125.18 125.18 125.19 125.19 125.19 125.19 125.19 125.19 125.19 125.19 125.19 125.19 125.19 125.2 126.17 129.21 130.29 130.25 130.03 129.83 129.5 129.14 129.11 128.91 128.88 129.22 129.54 129.49 129.76 129.93 129.75 128.84 126.29 125.21 125.29 126.74 128.79 128.91 128.57 128.47 128.7 129.02 129.37 128.11 125.74 125.22 125.2 125.2 125.2 125.2 125.21 125.21 125.2 125.2 125.2 125.2 125.2 125.2 125.2 125.6 128.87 132.04 133.61 139.83 148.08 156.28 164.69 173.35 182.29 193.45 203.88 212.01 218.91 225.82 232.41 237.96 241.08 241.6 241.27 240.95 240.85 241.13 241.41 241.28 240.55 238.95 236.74 234.12 231.09 227.99 224.94 222.31 220.49 219.05 217.56 215.82 214.41 213.65 213.06 212.52 212.02 211.56 211.19 210.63 209.58 208.16 206.59 204.89 203.08 201.2 199.24 197.22 195.27 193.35 191.38 189.42 187.61 185.96 184.51 183.27 181.78 180.15 179.97 177.94 175.98 174.18 171.62 167.6 165.06 165.05 165.69 166.34 166.64 166.58 166.37 166.19 166.01 165.79 165.45 164.96 164.4 163.95 163.6 163.27 162.94 162.63 162.25 161.64 160.77 160.02 159.5 -9999 -9999 -9999 -9999 -9999 -9999 -9999 -9999 -9999 -9999 -9999
-9999 -9999 -9999 -9999 -9999 179.42 179.79 180.06 180.32 180.65 180.88 180.88 180.78 180.86 181.09 181.35 181.68 181.91 182.1 182.27 182.22 182.3 182.43 182.4 181.91 181.14 180.56 179.56 178.67 177.91 177.02 176.1 175.34 174.87 174.42 173.89 173.43 172.84 171.87 170.84 170.34 170 169.66 168.9 167.8 166.75 165.56 164.23 163.28 162.63 162.08 161.54 160.9 160.19 159.67 159.34 159.08 158.29 157 156.02 155.5 155.2 154.55 153.89 153.47 153.1 152.63 152.03 151.5 151.05 150.43 149.94 149.35 148.71 148.1 147.59 147.23 146.74 145.99 145.19 144.61 144.04 143.39 142.89 142.49 142.07 141.66 141.27 140.78 140.33 139.91 139.55 139.27 139.04 138.81 138.51 138.01 137.65 137.35 136.72 135.97 135.55 135.24 134.84 134.45 134.12 133.88 133.71 133.58 133.44 133.33 133.28 133.3 133.48 133.72 134.11 134.91 135.2 134.21 133.23 133.28 133.49 133.37 133.07 132.9 132.69 132.51 132.46 132.35 132.23 131.86 129.56 128.32 128.15 128.29 128.47 128.7 128.87 128.93 128.84 128.69 128.43 128.08 127.76 127.53 127.48 127.38 125.79 125.17 125.17 125.17 125.43 127.43 128.17 128.51 128.64 128.86 129.27 129.68 130.29 132.04 133.96 135.3 135.92 136.22 136.07 135.97 135.82 133.66 129.4 126.65 125.88 125.5 125.47 125.47 125.47 125.47 125.47 125.47 125.47 125.47 125.47 125.47 125.47 125.47 125.47 125.47 125.47 125.47 125.47 125.47 125.47 125.47 125.47 125.47 125.47 125.47 125.47 125.47 125.47 125.49 125.74 126.22 126.54 126.81 127.28 129.47 131.6 131.64 131.52 131.6 131.55 131.15 130.24 129.26 127.37 125.35 125.18 125.18 125.18 125.18 125.18 125.18 125.18 125.18 125.18 125.18 125.18 125.18 125.18 125.18 125.18 125.18 125.18 125.18 125.18 125.18 125.18 125.18 125.18 125.18 125.18 125.18 125.18 125.18 125.18 125.18 125.18 125.18 125.18 125.18 125.18 125.18 125.18 125.18 125.18 125.18 125.19 125.19 125.19 125.19 125.19 125.19 125.19 125.3 127.07 129.56 130.18 130.21 130 129.79 129.47 129.11 129.02 128.88 128.85 129.16 129.41 129.35 129.6 129.82 129.89 129.39 126.99 125.25 125.21 126.13 128.63 128.96 128.6 128.52 128.75 129.04 129.01 126.98 125.28 125.2 125.2 125.2 125.2 125.2 125.2 125.2 125.2 125.2 125.2 125.2 125.2 125.2 125.2 126.41 130.51 132.49 135.24 142.51 151.05 159.69 168.33 177.16 187.31 198.57 207.9 215.26 222.27 229.32 235.62 239.92 241.56 241.62 241.37 241.17 241.15 241.4 241.24 240.14 238 235.24 232.39 229.39 226.34 223.34 220.47 218.33 216.97 215.74 214.32 213.05 212.24 211.65 211.01 210.61 210.25 209.97 209.69 209.04 207.92 206.46 204.83 203.2 201.48 199.59 197.6 195.6 193.73 191.87 189.97 188.11 186.32 184.63 183.13 181.88 180.49 179.33 178.9 176.78 175.4 173.88 171.57 167.5 164.36 164.08 164.88 165.57 165.86 165.79 165.58 165.38 165.19 164.96 164.58 164.05 163.37 162.84 162.42 162 161.74 161.39 160.95 160.29 159.44 158.75 158.23 -9999 -9999 -9999 -9999 -9999 -9999 -9999 -9999 -9999 -9999 -9999
-9999 -9999 -9999 -9999 -9999 179.24 179.66 179.97 180.26 180.56 180.7 180.66 180.68 180.9 181.15 181.44 181.72 181.89 182.06 182.22 182.18 182.04 182.11 182.01 181.46 180.73 180.01 179.19 178.48 177.73 176.81 175.82 175.13 174.64 174.12 173.48 172.96 172.4 171.56 170.66 170.29 170.2 169.9 168.91 167.68 166.61 165.56 164.42 163.54 162.91 162.34 161.77 161.2 160.39 159.8 159.57 159.32 158.27 156.89 155.98 155.45 155.24 154.66 153.94 153.38 152.85 152.22 151.62 151.12 150.69 150.14 149.67 149.13 148.67 148.3 147.87 147.39 146.79 145.9 145.05 144.48 143.91 143.3 142.86 142.49 142.09 141.76 141.35 140.84 140.36 139.88 139.53 139.18 138.82 138.44 138.07 137.72 137.29 136.6 135.89 135.43 135.09 134.77 134.45 134.16 133.92 133.77 133.68 133.59 133.44 133.29 133.18 133.1 133.09 133.36 133.66 134.2 135.07 134.91 133.83 133.39 133.37 133.22 132.95 132.74 132.55 132.46 132.4 132.26 132.15 131.47 129.15 128.23 128.09 128.24 128.42 128.67 128.84 128.87 128.78 128.65 128.34 128.02 127.72 127.41 127.42 127.15 125.54 125.16 125.16 125.16 125.58 127.66 128.31 128.67 128.74 128.97 129.37 129.86 131.22 133.24 134.87 135.8 136.2 136.52 136.24 136.37 135.68 132.62 128.48 126.72 126.17 125.9 125.58 125.47 125.47 125.47 125.47 125.47 125.47 125.47 125.47 125.47 125.47 125.47 125.47 125.47 125.47 125.47 125.47 125.47 125.47 125.47 125.47 125.47 125.47 125.47 125.47 125.47 125.47 125.47 125.61 126.02 126.2 126.67 127.22 129.64 131.59 131.63 131.6 131.6 131.42 130.88 129.99 128.97 126.71 125.22 125.17 125.17 125.17 125.17 125.18 125.18 125.18 125.18 125.18 125.18 125.18 125.18 125.18 125.18 125.18 125.18 125.18 125.18 125.18 125.18 125.18 125.18 125.18 125.18 125.18 125.18 125.18 125.18 125.18 125.18 125.18 125.18 125.18 125.18 125.18 125.18 125.18 125.18 125.18 125.18 125.18 125.18 125.18 125.19 125.19 125.19 125.19 125.54 128.08 129.84 129.96 130.07 129.99 129.77 129.46 129.12 128.97 128.94 128.87 129.02 129.22 129.21 129.43 129.71 129.84 129.63 127.65 125.28 125.19 125.79 128.4 128.95 128.59 128.58 128.9 129.07 128.27 126 125.2 125.2 125.2 125.2 125.2 125.2 125.2 125.2 125.2 125.2 125.2 125.2 125.2 125.2 125.26 127.91 131.66 133.15 137.78 145.48 154.13 163.08 172.19 181.5 192.57 203.01 211.15 218.52 225.92 233.26 238.42 240.63 241.19 241.3 241.34 241.25 241.1 240.78 239.52 237.13 233.98 230.82 227.87 224.8 221.87 219.23 216.85 215.21 214.03 212.9 211.75 210.95 210.24 209.57 209.11 208.82 208.58 208.34 207.88 207.08 206.01 204.69 203.25 201.74 200.07 198.26 196.37 194.38 192.38 190.53 188.68 186.8 185.08 183.41 181.85 180.64 179.29 178.55 177.73 175.89 174.79 173.42 171.38 167.68 163.95 163.25 164.1 164.84 165.15 165.08 164.89 164.66 164.45 164.22 163.85 163.3 162.6 162 161.46 160.91 160.62 160.34 159.86 159.1 158.3 157.66 157.13 -9999 -9999 -9999 -9999 -9999 -9999 -9999 -9999 -9999 -9999 -9999
-9999 -9999 -9999 -9999 -9999 179.01 179.42 179.79 180.11 180.38 180.47 180.49 180.63 181.01 181.33 181.58 181.81 181.94 182.01 182.1 182.06 181.8 181.56 181.32 180.83 180.27 179.59 178.94 178.19 177.36 176.51 175.72 175.14 174.45 173.76 173.14 172.64 172.15 171.45 170.71 170.38 170.4 169.89 168.69 167.45 166.46 165.61 164.69 163.85 163.18 162.65 162.2 161.6 160.7 160.17 159.98 159.53 158.31 156.96 156.11 155.51 155.23 154.75 153.95 153.32 152.77 152.15 151.57 151.03 150.58 150.1 149.67 149.22 148.8 148.41 147.97 147.46 146.79 145.84 145.01 144.46 143.91 143.42 143.07 142.74 142.33 142.03 141.6 141.06 140.53 139.79 139.36 138.92 138.41 138.02 137.73 137.22 136.49 135.81 135.37 135.01 134.73 134.47 134.24 134.05 133.88 133.78 133.71 133.62 133.49 133.34 133.18 133.05 132.93 132.99 133.35 133.77 134.61 135.1 134.28 133.49 133.26 133.12 132.9 132.63 132.45 132.42 132.34 132.18 132.09 130.94 128.84 128.14 128.05 128.21 128.43 128.67 128.8 128.82 128.76 128.6 128.25 127.94 127.67 127.26 127.35 126.81 125.36 125.16 125.16 125.16 125.87 127.88 128.43 128.74 128.83 129.13 129.56 130.57 132.42 134.31 135.55 136.04 136.61 136.73 136.53 136.62 135.18 131.41 127.86 126.93 126.7 126.47 126.03 125.61 125.48 125.47 125.47 125.47 125.47 125.47 125.47 125.47 125.47 125.47 125.47 125.47 125.47 125.47 125.47 125.47 125.47 125.47 125.47 125.47 125.47 125.47 125.47 125.47 125.47 125.48 125.68 126.06 126.3 126.89 127.59 130.23 131.61 131.64 131.62 131.59 131.32 130.58 129.75 128.6 126.12 125.17 125.17 125.17 125.17 125.17 125.17 125.17 125.17 125.17 125.17 125.17 125.18 125.18 125.18 125.18 125.18 125.18 125.18 125.18 125.18 125.18 125.18 125.18 125.18 125.18 125.18 125.18 125.18 125.18 125.18 125.18 125.18 125.18 125.18 125.18 125.18 125.18 125.18 125.18 125.18 125.18 125.18 125.18 125.18 125.18 125.18 125.18 125.2 125.97 128.87 130.15 129.92 129.97 129.92 129.72 129.47 129.14 128.96 129 128.95 128.94 129.09 129.12 129.25 129.56 129.72 129.64 128.12 125.31 125.19 125.57 128.22 128.93 128.56 128.69 129.06 128.87 127.13 125.41 125.2 125.2 125.2 125.2 125.2 125.2 125.2 125.2 125.2 125.2 125.2 125.2 125.2 125.2 125.71 129.7 132.33 134.45 140.73 148.9 157.48 166.56 176.34 186.48 197.7 207.17 214.53 221.96 229.65 236.25 239.42 240.27 240.63 241.09 241.21 240.94 240.14 238.66 236.23 233.13 229.77 226.57 223.63 220.78 218.28 216.15 214.29 212.73 211.53 210.65 209.75 209 208.28 207.71 207.32 207.07 206.82 206.48 205.81 204.96 204 202.88 201.59 200.21 198.66 196.94 195.12 193.18 191.22 189.35 187.45 185.53 183.78 182.09 180.56 179.49 178.13 177.77 176.5 174.95 173.95 172.62 170.92 167.72 163.58 162.27 163.2 164.07 164.51 164.49 164.28 164.01 163.76 163.51 163.1 162.56 161.91 161.25 160.6 160.05 159.72 159.41 158.87 158.06 157.26 156.62 156.17 -9999 -9999 -9999 -9999 -9999 -9999 -9999 -9999 -9999 -9999 -9999
-9999 -9999 -9999 -9999 -9999 178.77 179.16 179.55 179.86 180.08 180.25 180.4 180.65 181.07 181.48 181.69 181.83 181.94 181.94 181.91 181.83 181.58 181.21 180.85 180.37 179.77 179.06 178.39 177.62 176.91 176.2 175.55 175.02 174.23 173.42 172.84 172.42 172.06 171.47 170.8 170.44 170.41 169.66 168.38 167.22 166.34 165.62 164.77 163.9 163.35 163.01 162.62 161.96 161.09 160.64 160.38 159.79 158.55 157.25 156.4 155.74 155.17 154.74 153.7 153.09 152.67 152.31 151.91 151.28 150.75 150.24 149.87 149.43 148.93 148.4 147.93 147.43 146.76 145.87 145.1 144.59 144.16 143.85 143.55 143.13 142.67 142.38 141.91 141.38 140.79 139.71 139.07 138.64 138.13 137.73 137.14 136.39 135.8 135.33 134.99 134.82 134.66 134.41 134.24 134.09 133.93 133.79 133.69 133.6 133.52 133.42 133.3 133.13 132.92 132.78 132.97 133.54 134.22 134.99 134.56 133.64 133.19 132.92 132.74 132.5 132.36 132.37 132.27 132.14 132.03 130.49 128.58 128.07 128.06 128.22 128.44 128.67 128.78 128.8 128.76 128.56 128.2 127.82 127.57 127.39 127.39 126.28 125.22 125.15 125.15 125.19 126.46 128.06 128.48 128.73 128.9 129.25 130 131.63 133.59 135.17 135.85 136.35 137.04 136.9 136.86 136.68 134.31 130.13 127.34 127.1 127.33 127.06 126.68 126.17 125.61 125.49 125.47 125.47 125.47 125.47 125.47 125.47 125.47 125.47 125.47 125.47 125.47 125.47 125.47 125.47 125.47 125.47 125.47 125.47 125.47 125.47 125.47 125.47 125.47 125.51 125.92 126.23 126.63 127.15 128.27 130.92 131.65 131.63 131.41 131.22 130.99 130.32 129.56 128.16 125.76 125.17 125.17 125.17 125.17 125.17 125.17 125.17 125.17 125.17 125.17 125.17 125.17 125.17 125.17 125.17 125.17 125.18 125.18 125.18 125.18 125.18 125.18 125.18 125.18 125.18 125.18 125.18 125.18 125.18 125.18 125.18 125.18 125.18 125.18 125.18 125.18 125.18 125.18 125.18 125.18 125.18 125.18 125.18 125.18 125.18 125.18 125.18 125.26 126.63 129.54 130.27 130.01 129.89 129.8 129.69 129.49 129.17 128.92 129 129.02 128.93 129.04 129.07 129.11 129.37 129.64 129.59 128.43 125.39 125.19 125.46 128.2 128.91 128.53 128.8 129.12 128.17 125.99 125.22 125.19 125.19 125.2 125.2 125.2 125.2 125.2 125.19 125.19 125.2 125.2 125.2 125.2 125.27 127.11 131.23 133.03 136.72 143.89 152.28 161.25 171.06 181.25 192.15 203.08 211.82 218.98 225.75 232.43 237.15 238.83 239.45 240.12 240.69 240.44 239.5 237.79 235.38 232.47 229.22 225.95 222.99 220.31 217.94 215.99 214.18 212.4 210.7 209.46 208.58 207.84 207.17 206.51 205.93 205.5 205.18 204.88 204.45 203.74 202.88 201.96 200.91 199.76 198.48 197.01 195.42 193.66 191.79 189.85 187.98 186.09 184.23 182.44 180.7 179.3 178.25 177.11 176.9 175.13 173.7 172.68 171.4 169.95 167.24 162.98 161.11 162.14 163.26 163.87 163.92 163.66 163.32 163.05 162.72 162.26 161.72 161.12 160.5 159.87 159.36 159.01 158.57 157.92 157.1 156.37 155.78 155.37 -9999 -9999 -9999 -9999 -9999 -9999 -9999 -9999 -9999 -9999 -9999
