NCOLS 134 
NROWS 96 
XLLCORNER 341244.004906891 
YLLCORNER 4516825.80519417 
CELLSIZE 30 
NODATA_value -9999 
-9999.000000000000000 -9999 -9999 -9999 -9999 -9999 -9999 -9999 -9999 -9999 -9999 -9999 -9999 -9999 -9999 -9999 -9999 -9999 -9999 -9999 -9999 -9999 -9999 -9999 -9999 -9999 -9999 -9999 -9999 -9999 -9999 -9999 -9999 -9999 -9999 -9999 -9999 -9999 -9999 -9999 -9999 -9999 -9999 -9999 -9999 -9999 -9999 -9999 -9999 -9999 -9999 -9999 -9999 -9999 -9999 -9999 -9999 -9999 -9999 -9999 -9999 -9999 -9999 -9999 -9999 -9999 -9999 -9999 -9999 -9999 -9999 -9999 -9999 -9999 -9999 -9999 -9999 -9999 -9999 -9999 -9999 -9999 -9999 -9999 -9999 -9999 -9999 -9999 -9999 -9999 -9999 -9999 -9999 -9999 -9999 -9999 -9999 -9999 -9999 -9999 -9999 -9999 -9999 -9999 -9999 -9999 -9999 -9999 -9999 -9999 -9999 -9999 -9999 -9999 -9999 -9999 -9999 -9999 -9999 -9999 -9999 -9999 -9999 -9999 -9999 -9999 -9999 -9999 -9999 -9999 -9999 -9999 -9999 -9999
-9999 -9999 -9999 191.36 190.15 186.76 183.09 177.82 171.32 166.59 164.25 162.94 -9999 -9999 -9999 -9999 -9999 -9999 -9999 -9999 -9999 -9999 -9999 -9999 -9999 -9999 -9999 -9999 -9999 -9999 -9999 -9999 -9999 -9999 -9999 -9999 -9999 -9999 -9999 -9999 -9999 -9999 -9999 -9999 -9999 -9999 -9999 -9999 -9999 -9999 -9999 -9999 -9999 -9999 -9999 -9999 -9999 -9999 -9999 -9999 -9999 -9999 -9999 -9999 -9999 -9999 -9999 -9999 -9999 -9999 -9999 -9999 -9999 -9999 -9999 -9999 -9999 -9999 -9999 -9999 -9999 -9999 -9999 -9999 -9999 -9999 -9999 -9999 -9999 -9999 -9999 -9999 -9999 -9999 -9999 -9999 -9999 -9999 -9999 -9999 -9999 -9999 -9999 -9999 -9999 -9999 -9999 -9999 -9999 -9999 -9999 -9999 -9999 -9999 -9999 -9999 -9999 -9999 -9999 -9999 -9999 -9999 -9999 -9999 -9999 -9999 -9999 -9999 -9999 -9999 -9999 -9999 -9999 -9999
-9999 -9999 -9999 189.95 189.71 188.43 185.7 181.91 175.15 169.84 168.01 166.34 164.75 163.05 161.05 159.43 158.04 156.68 155.8 154.93 154.24 153.39 150.91 146.99 144.73 147.77 152.92 155.3 154.12 151.56 148.82 146.02 145.19 143.45 141.39 140.09 139.05 138.49 138.24 137.79 137.53 137.04 134.07 128.56 129.07 130.05 130.85 130.75 130.64 130.34 129.98 129.49 128.72 128.21 128.16 128.12 127.66 125.75 125.79 -9999 -9999 -9999 -9999 -9999 -9999 -9999 -9999 -9999 -9999 -9999 -9999 -9999 -9999 -9999 -9999 -9999 -9999 -9999 -9999 -9999 -9999 -9999 -9999 -9999 -9999 -9999 -9999 -9999 -9999 -9999 -9999 -9999 -9999 -9999 -9999 -9999 -9999 -9999 -9999 -9999 -9999 -9999 -9999 -9999 -9999 -9999 -9999 -9999 -9999 -9999 -9999 -9999 -9999 -9999 -9999 -9999 -9999 -9999 -9999 -9999 -9999 -9999 -9999 -9999 -9999 -9999 -9999 -9999 -9999 -9999 -9999 -9999 -9999 -9999
-9999 -9999 -9999 186.95 186.3 185.42 184.41 182.24 179.18 175.94 175.16 173.75 172.37 170.77 168.81 166.66 164.49 162.26 161.11 160.26 160.28 160.42 157.72 149.87 145.7 150.2 159.49 162.05 160.8 157.3 153.05 149.27 146.84 145.18 142.65 141.25 139.42 138.52 138.34 138.15 137.48 137.05 136.41 130.23 128.52 129.29 129.72 129.74 129.37 128.98 128.7 128.38 128.36 128.92 130.18 131.63 134.03 137.23 139.43 140.23 139.66 138.6 137.53 135.35 134.19 131.87 131.4 130.6 131.1 132.88 132.97 131.39 129.54 131.14 134.26 133.78 133.04 130.5 127.88 128.28 130.65 130.56 130.65 130.75 130.26 130.34 130.59 130.1 129.75 129.52 130.13 132.2 131.73 129.54 131.72 130.35 130.65 130.72 130.31 126.4 127.21 126.17 126.02 126.02 126.02 126.02 -9999 -9999 -9999 -9999 -9999 -9999 -9999 -9999 -9999 -9999 -9999 -9999 -9999 -9999 -9999 -9999 -9999 -9999 -9999 -9999 -9999 -9999 -9999 -9999 -9999 -9999 -9999 -9999
-9999 -9999 -9999 185.02 184.45 183.42 182.18 181.22 179.56 178.76 177.82 176.88 175.71 174.26 172.56 170.48 168.75 167.2 166.35 165.91 165.8 165.72 163.83 153.2 146.62 152.15 160.21 163.63 164.03 162.81 159.11 154.77 150.28 147.24 144.33 142.67 140.43 138.94 138.57 138.52 138.19 137.37 137.11 135.67 130.41 128.81 128.59 128.79 129.84 131.22 132.77 135.16 137.82 139.89 141.2 142.08 142.7 142.92 142.86 142.62 142.19 141.79 140.83 139.75 136.87 134.06 132.34 131.47 132.31 133 131.76 129.67 130.55 133.58 134.01 133.72 132.89 130.84 127.88 128.18 130.67 130.57 130.67 130.78 130.51 130.01 130.16 129.88 129.7 129.77 130.21 132.3 131.47 129.27 132.25 130.14 130.53 130.73 128.12 127.14 127.51 126.11 126.01 126.02 126.02 126.02 126.02 126.02 126.02 126.02 126.02 126.03 126.07 129.82 130.43 129.76 127.84 125.9 125.89 126.21 127.01 126.22 125.93 125.93 125.94 125.94 125.95 125.95 126.15 127.69 130.14 132.82 -9999 -9999
-9999 -9999 -9999 182.1 181.82 181.46 181.32 180.9 179.66 179.06 178.46 177.9 176.99 175.71 174.47 172.66 171.06 170.14 169.95 170.08 170.28 169.44 165.92 151.9 147.54 154.76 162.42 164.24 164.62 163.3 161.15 158.5 155.26 151.45 148.15 145.09 142.09 139.99 139.17 139.15 139.11 138.11 137.42 136.95 135.75 135.1 135.53 136.52 137.4 137.68 138.97 141.08 141.69 142.55 143.01 143.1 143.32 143.2 143.15 142.72 142.43 141.64 140.96 140.58 137.83 135.08 133.77 133.18 133.07 132.4 130.84 131.56 133.15 133.72 133.78 133.48 132.64 130.18 127.73 128.41 130.73 130.53 130.64 130.68 130.34 129.79 129.86 129.78 129.78 129.68 130.13 132.42 130.83 130.03 131.34 130.15 130.64 128.74 126.59 127.86 127.34 126.03 126.01 126.01 126.01 126.01 126.02 126.02 126.02 126.02 126.02 126.02 126.18 129.88 129.78 128.14 125.94 125.87 126.3 127.5 127.43 126.06 125.92 125.93 125.93 125.94 125.94 125.95 126.25 129.52 131.25 132.2 -9999 -9999
-9999 -9999 -9999 181.48 181.22 180.69 179.91 179.32 178.92 178.65 178.47 178.24 177.55 176.51 175.32 173.83 172.48 171.54 171.37 171.41 170.08 164.76 155.39 149.52 149.42 158.58 164.48 165.76 166.18 164.85 162.74 160.34 157.26 153.77 150.5 147.29 143.89 140.85 139.63 139.73 139.51 138.57 137.79 137.19 136.51 137.23 137.64 138.01 138.33 137.98 139.32 141.56 142.06 142.97 143.22 142.91 143.4 143.24 143.04 142.6 142.18 141.12 140.38 139.46 137.35 135.2 134.07 133.82 133.27 132.65 132.49 132.66 133.01 133.45 133.53 133.15 132.24 129.37 127.38 128.82 130.64 130.52 130.58 130.56 130.16 129.83 129.71 129.77 129.94 129.21 130.53 132.51 130.18 131.44 130.36 130.16 130.72 126.45 127.16 128.02 126.73 126 126 126 126.01 126.01 126.01 126.01 126.01 126.02 126.06 126.45 126.09 129.2 128.47 126.08 125.86 126.14 127.72 127.89 127.17 125.92 125.92 125.92 125.93 125.93 125.94 125.94 127.59 130.26 132.53 132.3 -9999 -9999
-9999 -9999 -9999 179.07 178.17 176.65 175.73 175.5 175.86 176.33 176.84 177.07 176.69 175.85 174.7 173.34 172.3 171.57 170.83 169.6 164.02 154.38 150.18 149.61 155.37 165.56 167.92 167.81 168.26 167.48 165.66 163.6 160.22 156.92 153.27 149.18 144.99 142.02 139.95 139.64 139.33 138.86 138.35 137.56 137.07 138.31 138.64 138.71 139.17 138.86 140.09 141.97 142.5 143.22 143.35 143.27 143.21 142.93 142.63 142.16 141.13 140.39 138.87 137.7 136.53 135.44 134.47 134.11 133.55 132.31 132.16 132.55 132.48 133.13 132.78 132.35 130.94 128.27 127.13 129.45 130.59 130.47 130.55 130.42 130.1 129.88 129.66 129.89 129.4 129.13 131.23 132.45 129.82 131.98 130.42 129.94 127.35 126.02 126.97 127.66 126.11 125.99 125.99 125.99 126 126 126 126.01 126.01 126.01 126.36 127.46 126.15 127.83 126.37 125.84 125.89 127.57 128.69 127.92 126.6 125.91 125.92 125.92 125.92 125.93 125.93 126.03 129.4 130.63 132.65 132.56 -9999 -9999
-9999 -9999 -9999 173.61 173.12 171.65 170.82 170.89 171.88 172.57 173.24 173.89 174.12 173.78 173.01 171.83 171.1 170.44 168.98 166.5 156.72 151.37 152.34 157.74 162.38 168.09 169.67 170.14 170.17 169.23 168.5 167.89 165.38 162.49 159.1 154.36 146.89 142.94 140.74 139.86 139.42 139.15 138.98 138.07 137.96 138.89 139.18 139.22 139.23 139.33 140.82 142.36 142.92 143.39 143.45 143.49 143.35 142.78 141.84 140.12 139.17 138.42 137.94 138.15 136.74 135.56 134.62 133.97 133.54 132.51 131.93 132.12 132.36 132.72 132.18 131.7 129.48 127.36 127.26 130.41 130.39 130.33 130.34 130.18 130.06 129.76 129.69 129.81 128.95 129.42 131.87 132.14 130.36 131.29 130.54 129.22 126.09 126.02 127.21 126.17 125.97 125.97 125.98 125.98 125.98 125.98 125.99 126 126 126 126.97 127.49 126.31 126.09 125.84 125.83 126.63 129.38 129.16 127.84 126.05 125.9 125.91 125.92 125.92 125.92 125.93 126.94 130.36 131.18 133.22 134.38 -9999 -9999
-9999 -9999 -9999 169.65 168.79 167.76 167.08 167.12 167.81 168.49 169.31 170.17 170.82 170.7 170.26 169.87 169.83 169.63 168.64 164.49 153.78 153.44 161.16 165.72 167.14 169.6 170.65 171.3 171.6 170.93 170.12 169.26 168.02 165.95 164.41 161.09 153.94 144.83 143.06 140.37 139.75 139.56 139.13 138.29 138.25 138.76 139.04 139.1 139.12 139.32 141.16 142.64 143.26 143.35 143 142.2 141.19 140.5 140.5 140.35 139.85 139.19 138.87 138.56 136.57 135.53 134.73 133.96 133.16 132.5 132.16 131.79 132.19 132.21 131.46 130.95 127.84 126.98 128.51 130.45 130.25 130.18 130.06 129.94 129.73 129.59 129.8 129.11 129.02 130.08 132.28 130.62 131.55 130.54 129.94 126.62 126 127.81 129.34 126.08 125.91 125.92 125.93 125.94 125.94 125.95 125.96 125.96 125.97 126.01 127.24 127.6 126.31 125.82 125.82 125.92 128.85 130.4 129.45 127.25 125.9 125.9 125.91 125.91 125.91 125.92 125.93 128.43 130.63 131.71 134.17 136.23 -9999 -9999
-9999 -9999 -9999 166.14 165.56 164.92 164.05 163.55 163.73 163.88 163.81 164.35 164.33 163.84 163.58 163.43 163.36 163.78 163.32 157.47 154.19 157.87 166 167.74 169.31 170.7 171.53 172.07 172.38 171.99 171.25 170.31 169.34 168.06 166.68 165.49 161.81 150.81 144.17 140.98 139.81 139.7 139.38 138.48 138.49 138.75 139.06 139.35 139.53 139.82 140.68 141.83 141.63 141.37 141.61 142.18 142.63 142.8 141.89 141.21 140.14 139.34 138.69 137.69 136.41 135.48 134.95 133.82 133.27 132.59 132.33 131.95 132.06 131.75 130.86 129.6 126.97 127.1 129.65 130.01 130.12 129.92 129.8 129.64 129.48 129.69 129.51 128.29 129.07 131.11 132.46 130.04 131.72 130.23 127.98 126 127.02 130.18 128.91 125.84 125.84 125.84 125.85 125.86 125.87 125.88 125.89 125.89 125.9 125.94 127.42 127.73 126.09 125.82 125.82 127.19 130.71 130.4 129.35 126.24 125.89 125.9 125.9 125.91 125.91 125.91 126.11 129.88 130.65 132.24 135.23 136.93 -9999 -9999
-9999 -9999 -9999 163.8 163.05 162.15 161.65 161.29 160.89 160.57 160.05 159.4 159.11 158.44 157.32 156.62 155.96 155.57 154.71 153.65 155.14 159.05 165.52 169 171.13 171.2 171.99 172.73 173.07 172.8 172.11 171.14 169.71 168.46 167.47 166.33 164.67 159.57 148.02 142.73 139.97 139.85 139.48 138.73 138.7 138.9 139.27 139.61 139.87 140.26 141 141.98 143.07 144.05 143.99 143.72 143.32 142.81 141.86 140.82 139.83 139.18 138.29 137.38 136.26 135.32 134.81 133.8 133.19 132.79 132.45 132.03 132 131.19 130.71 128.35 126.87 128.25 129.64 129.49 129.57 129.45 129.43 129.4 129.62 129.96 128.63 129.06 129.48 131.99 131.68 130.91 130.67 129.42 126.19 126.45 129.69 130.7 127.82 125.8 125.81 125.81 125.81 125.82 125.82 125.82 125.83 125.83 125.84 125.85 126.82 127.08 125.84 125.82 126.11 129.99 130.7 130.36 128.19 125.89 125.89 125.89 125.9 125.9 125.91 125.91 126.8 130.49 130.58 132.81 135.54 137.3 -9999 -9999
-9999 -9999 -9999 162.38 161.7 161.02 160.63 160.15 159.35 158.63 158.34 156.36 156.16 156.41 155.95 155.16 154.66 154.63 154.56 154.43 155.92 159.85 164.28 168.15 170.47 171.15 171.86 172.73 173.36 173.21 172.17 171.13 169.56 167.35 165.83 164.77 162.76 159.07 152.5 144.12 140.99 139.61 139.27 139.16 139.18 139.08 138.93 139.05 139.98 140.81 142.12 142.83 143.65 143.72 143.67 143.33 142.89 142.5 141.46 140.08 139.5 138.7 137.76 136.94 136.04 135.65 134.87 133.86 133.07 132.91 132.73 132.27 131.91 130.84 129.61 126.94 127.35 130.29 129.31 129.32 129.36 129.26 129.28 129.56 129.53 128.71 128.35 129.09 130.67 132.45 130 131.61 129.94 127.62 126.06 128.83 130.68 130.79 126.73 125.8 125.8 125.8 125.81 125.81 125.81 125.81 125.82 125.82 125.82 125.82 125.97 126.19 125.81 125.82 128.55 130.83 130.53 130.13 126.6 125.88 125.89 125.89 125.89 125.9 125.9 125.91 127.98 130.54 130.79 133.27 135.35 136.4 -9999 -9999
-9999 -9999 -9999 161.51 160.81 160.39 160.02 159.45 158.66 158.02 157.78 156.84 156.28 155.97 155.17 155.07 154.83 155.01 155.54 156.59 157.78 160.01 162.61 165.53 167.99 170.01 171.14 172.46 172.82 173.1 172.43 171.19 169.72 167.05 164.39 161.35 156.85 152.55 149.32 145.01 142.7 141.12 140 139.24 139.07 138.59 138.53 139.3 140.02 140.5 141.84 142.89 143.25 143.5 143.59 143.52 142.85 142.23 141.02 139.98 139.15 138.1 137.34 136.69 135.92 135.56 134.81 134.15 133.21 133.04 132.64 132.32 132.31 131.79 128.33 126.81 128.23 129.41 129.21 129.3 129.28 129.24 129.15 128.97 128.09 128.46 128.37 129.59 131.95 131.82 130.01 130.92 129.4 126.2 127.41 130.56 130.84 129.96 125.99 125.79 125.79 125.79 125.8 125.8 125.8 125.8 125.81 125.81 125.81 125.81 125.81 125.81 125.81 126.62 130.68 130.58 130.17 128.71 125.9 125.88 125.88 125.89 125.89 125.89 125.9 125.9 129.15 130.41 131.08 133.66 135.37 136.45 -9999 -9999
-9999 -9999 -9999 161.05 159.87 159.68 159.36 158.73 158.15 157.86 157.54 157.12 156.7 156.49 156.11 156.17 156.38 156.75 156.85 157.88 159.14 160.57 162.91 164.46 165.8 168.03 169.06 170.28 171.02 171.86 172.15 171.2 169.23 165.99 161.39 157.19 153.12 150.3 150.01 146.97 141.05 140.04 139.47 138.93 139.08 138.72 139.18 139.19 139.63 140.48 141.52 142.75 143.06 143.29 143.5 143.51 143.31 142.33 141.1 139.71 138.98 137.8 137.12 136.47 135.85 135.23 134.71 133.9 133.34 133.09 132.61 132.4 132.11 131.27 127.21 126.92 128.89 129.19 129.14 129.17 129.06 129.02 128.87 128.41 128.75 129.02 128.68 131.21 132.42 129.82 131.46 130.29 127.4 126.53 128.84 130.79 130.99 129.21 125.79 125.78 125.78 125.79 125.79 125.79 125.79 125.79 125.8 125.8 125.8 125.8 125.8 125.8 125.81 128.99 130.78 130.23 130.07 126.85 125.87 125.88 125.88 125.88 125.89 125.89 125.89 126.2 130.12 130.31 131.08 134 136 136.97 -9999 -9999
-9999 -9999 -9999 161.25 160.17 160.03 159.65 159 158.23 157.71 157.44 157.33 156.9 157.19 158.23 158.72 157.91 158.5 158.64 159.35 160.38 161.52 163.26 164.52 164.24 166.9 168.11 169.2 169.74 169.49 167.74 163.8 159.19 156.79 156.28 157.09 158.52 159.1 158.37 150.44 139.9 139.86 139.65 139.15 139.19 138.86 139.04 139.07 139.6 140.51 141.57 142.49 143.04 143.32 143.6 143.66 143.29 141.84 140.76 139.71 138.79 137.33 136.84 136.43 135.99 135.04 134.48 133.5 133.44 132.92 132.62 132.42 131.69 129 126.77 127.55 129.21 129.04 129.04 128.9 128.95 128.92 128.49 128.95 129.11 129.17 130.05 132.22 131.45 128.88 131.47 128.68 126.68 126.81 129.55 130.83 130.85 127.61 125.76 125.77 125.77 125.77 125.78 125.78 125.78 125.78 125.79 125.79 125.79 125.79 125.8 125.79 126.88 130.78 130.48 130.11 129.31 125.97 125.87 125.87 125.87 125.88 125.88 125.89 125.89 127.47 130.3 130.25 131.29 134.33 136.69 137.77 -9999 -9999
-9999 -9999 -9999 162.61 161.36 160.88 160.56 159.82 158.74 158.26 157.9 157.91 158.6 159.46 159.73 159.95 160.49 160.78 160.61 160.96 161.56 162.36 163.45 164.42 164.89 166.27 167.39 166.1 163.73 161.51 160.97 161.96 163.7 164.23 162.97 161.13 159.64 159.07 157.88 151.35 140.34 139.89 139.78 139.25 139.15 138.87 138.89 138.92 139.4 140.26 141.64 142.29 142.8 143.15 143.33 143.41 142.52 141.41 140.25 139.1 137.87 137.07 136.76 136.44 135.99 135.08 133.97 133.48 133.27 132.68 132.56 132.51 132.17 127.86 126.75 128.21 129.15 128.81 128.89 128.86 128.98 128.87 128.54 129.07 129.16 129.05 131.66 132.31 129.51 130.68 129.91 126.7 127.24 126.5 129.96 130.82 130.56 126.81 125.75 125.76 125.76 125.76 125.77 125.77 125.77 125.77 125.78 125.78 125.78 125.78 125.79 125.88 129.6 130.63 129.93 130.19 127.55 125.86 125.86 125.87 125.87 125.87 125.88 125.88 125.88 128.59 130.18 130.21 131.55 134.79 138.25 139.3 -9999 -9999
-9999 -9999 -9999 164.94 163.69 162.74 162.28 161.08 160.15 159.9 159.37 159.38 159.77 159.96 160.24 161 162.19 162.48 162.06 162.34 162.56 162.81 163.5 163.96 163.69 164.05 163.86 164.41 165.95 167.82 167.57 167.28 166.1 163.8 161.31 159.45 159.18 158.62 156.47 151.47 141.36 139.86 139.61 139.01 138.83 138.69 138.54 138.77 139.58 140.55 141.4 142 142.57 143.22 143.3 142.84 141.86 140.89 139.92 138.55 137.56 136.99 136.65 136.41 136.12 134.8 133.62 133.39 133.1 132.73 132.69 132.49 132 127.36 126.86 128.43 129.17 128.87 128.77 128.87 128.94 128.85 128.72 129.05 128.99 130.38 132.35 131.31 128.81 131.55 129.54 126.7 127.19 126.52 130.2 130.7 130.31 125.94 125.75 125.75 125.75 125.75 125.76 125.76 125.76 125.76 125.77 125.77 125.77 125.77 125.78 127.89 130.93 130.11 129.82 129.68 126.02 125.85 125.85 125.86 125.86 125.87 125.87 125.88 125.93 129.44 129.91 130.18 131.81 135.27 138.9 140.64 -9999 -9999
-9999 -9999 -9999 167.98 167.01 165.51 164.68 163.56 163.33 164.27 163.18 160.91 160.05 160.58 161.36 162.3 163.54 163.76 163.53 163.53 163.79 163.71 163.71 164.38 165.19 165.92 166.1 166.02 166.13 166.62 166.31 165.17 163.48 160.87 157.47 155.51 154.93 153.09 151.45 148.39 142.48 139.89 138.9 138.36 138.5 138.39 138.47 138.59 139.27 140.48 141.16 141.82 142.49 142.95 143.16 142.45 141.45 140.38 139.71 138.28 137.21 136.96 136.92 136.45 136.02 134.71 133.56 133.18 133.01 132.72 132.62 132.65 130.25 126.71 126.86 128.56 129.11 128.94 128.74 128.79 128.78 128.83 128.98 129.07 129.57 131.94 132.14 129.17 129.85 130.84 129.54 127.09 126.81 127.73 130.35 130.62 129.46 125.74 125.74 125.74 125.75 125.75 125.75 125.75 125.75 125.75 125.76 125.76 125.76 125.76 126.43 130.62 130.74 129.8 129.83 127.94 125.84 125.84 125.84 125.85 125.85 125.86 125.86 125.86 126.09 129.75 129.74 130.21 132.12 135.84 139.64 142.79 -9999 -9999
-9999 -9999 -9999 168.41 168.12 167.8 167.19 166.48 167.18 167.05 166.57 165.01 162.12 162.47 163.47 164.35 164.78 164.75 164.56 164.48 164.41 164.33 164.09 164.3 164.71 164.74 164.65 164.29 164.38 164.43 163.8 161.72 159.22 157.11 154.41 151.76 149.05 147.16 145.95 143.15 141.17 140.02 138.94 138.19 138.13 138.05 138.05 138.45 139.31 140.24 140.97 141.53 142.4 142.67 142.79 142.12 141.29 140.48 139.42 138.18 137.44 136.94 136.74 136.46 135.62 134.11 133.68 132.98 132.75 132.62 132.63 131.87 128.85 126.67 126.83 128.39 128.94 128.81 128.84 129.03 129.11 128.98 128.93 129.14 131.02 132.37 130.99 128.59 131.53 129.93 129.36 126.86 126.04 129 130.05 130.32 128.11 125.73 125.74 125.74 125.74 125.74 125.74 125.74 125.74 125.74 125.75 125.75 125.75 125.76 128.75 130.65 130.28 129.72 129.37 126.12 125.83 125.83 125.83 125.84 125.84 125.84 125.85 125.86 126.47 129.85 129.74 130.33 132.32 136.38 140.42 144.45 -9999 -9999
-9999 -9999 -9999 169.06 169.43 170 169.14 168.95 168.02 167.29 166.98 166.01 165.43 165.23 164.93 164.61 164.64 165.07 164.83 164.96 164.61 164.33 164.06 163.94 163.07 162.12 161.65 160.7 160.64 160.47 159.75 158.78 156.13 154.05 151.02 148.65 147.46 146.21 142.82 141.51 140.6 139.98 138.61 137.87 137.75 137.69 138.05 138.18 139.25 139.85 140.72 141.37 141.7 142.29 142.34 141.82 140.91 140.37 138.97 137.41 137.13 136.81 136.44 136.16 135.15 133.93 133.58 132.9 132.68 132.47 132.4 131.38 129 126.68 126.81 128.2 128.99 128.96 128.97 128.99 128.92 128.8 128.89 129.92 132.17 131.76 129.65 129.09 131.74 129.88 129.47 126.57 126.14 128.79 129.88 129.68 126.81 125.72 125.73 125.73 125.73 125.73 125.73 125.73 125.74 125.74 125.74 125.74 125.74 126.2 130.64 130.42 129.99 129.76 127.15 125.82 125.82 125.82 125.82 125.82 125.83 125.84 125.84 125.85 126.88 129.79 129.89 130.4 132.59 137.28 141.33 145.51 -9999 -9999
-9999 -9999 -9999 171.05 170.71 170.43 169.5 168.72 167.95 167.22 166.39 165.17 164.49 163.6 163.25 162.86 162.62 163.52 164.41 164.64 163.68 162.82 162.52 161.33 160.19 159.19 158.59 158.26 158.08 157.88 157.34 156.5 152.92 150.55 148.55 146.55 146.15 145.12 142.18 140.98 140.2 139.52 138.14 137.54 137.39 137.41 137.71 137.89 138.58 139.36 139.88 140.81 141.2 141.92 141.8 141.1 140.41 139.39 138.32 137.25 137.03 136.64 136.33 135.6 134.34 133.74 133.23 132.68 132.57 132.35 132.07 130.74 129.32 126.74 126.89 127.82 128.87 128.79 128.89 128.89 128.81 128.85 129.12 131.48 132.3 130.15 128.88 130.81 130.88 129.52 129.4 127.74 126.34 128.12 129.84 129.33 126.02 125.71 125.71 125.72 125.72 125.72 125.73 125.73 125.73 125.73 125.73 125.74 125.74 128.27 130.84 130.15 129.68 127.49 125.83 125.8 125.8 125.8 125.83 125.84 125.82 125.83 125.83 125.84 127.33 129.66 129.86 130.34 132.81 138.39 144.63 146.78 -9999 -9999
-9999 -9999 -9999 171.36 170.86 170.2 169.36 168.22 166.83 165.51 163.54 162.76 162.52 161.4 160.02 159.73 159.32 160.1 161.09 161.26 160.07 159.59 159.07 157.98 157.58 157.17 156.92 156.66 156.2 155.56 153.9 151.12 149.11 148.33 146.91 144.77 143.67 142.04 141.17 140.13 139.24 138.22 137.52 137.09 136.95 136.98 137.23 137.65 138.1 138.61 139.19 139.91 140.56 141.01 141.23 140.51 139.89 138.89 137.82 137.05 136.94 136.6 136.2 135.2 134.14 133.52 133.08 132.89 132.71 132.34 131.95 130.34 129.22 126.69 127.11 127.29 128.89 128.61 128.76 128.8 128.76 128.89 130.04 132.33 131.26 129.09 128.99 131.78 130.29 129.72 129.55 129.51 126.48 126.95 129.63 128.44 125.72 125.7 125.7 125.71 125.71 125.71 125.72 125.72 125.72 125.72 125.72 125.72 125.99 130.34 130.5 129.84 127.2 125.8 125.78 125.77 125.78 125.85 126.34 126.28 125.8 125.8 125.81 125.81 127.59 129.55 129.79 130.37 133.3 139.22 146.07 147.37 -9999 -9999
-9999 -9999 -9999 171.85 171.1 170.04 169.12 166.78 163.78 161.4 159.65 158.6 157.07 156.14 156.34 156.69 155.97 155.59 155.45 155.64 156.06 156.67 156.43 155.83 155.12 154.08 152.89 152.39 151.84 151.24 150.06 148.87 148.59 148.63 146.92 144.1 143.39 141.71 140.94 139.66 138.91 137.77 137.36 137 136.6 136.58 136.86 137.24 137.82 138.04 138.76 139.24 139.95 140.2 140.38 139.92 139.58 138.17 137.44 136.8 136.73 136.44 135.88 134.77 134.19 133.31 132.83 132.85 132.62 132.28 131.91 130.03 129.17 126.68 127.29 127.05 128.36 128.34 128.33 128.55 128.7 129.03 131.77 132.2 129.41 128.56 130.38 131.54 130.44 130.14 129.68 129.5 127.95 126.05 129.29 127.37 125.69 125.69 125.7 125.7 125.7 125.7 125.7 125.71 125.71 125.71 125.72 125.73 128.01 130.88 129.89 127.59 125.78 126.25 125.89 125.75 125.76 126.13 126.74 126.57 125.78 125.78 125.78 125.79 127.81 129.48 129.73 130.39 133.85 140.53 146.52 149.25 -9999 -9999
-9999 -9999 -9999 172.02 170.85 169.65 167.94 164.63 161.08 158.77 157.06 155.47 154.23 154.07 154.06 153.96 154.3 154.18 153.83 153.65 153.67 153.4 152.35 151.62 149.7 148.35 148.3 148.33 148.87 149.96 148.94 148.51 148.57 148.62 146.83 144.07 143.16 141.54 140.53 139.31 138.74 137.65 137.34 136.9 136.35 136.35 136.72 137.25 137.56 138.16 138.61 139.03 139.49 139.61 139.59 139.48 138.62 137.46 136.99 136.7 136.38 135.96 135.22 134.42 134.24 133.02 132.65 132.79 132.59 132.17 131.77 129.99 128.96 126.61 126.93 127.43 128.34 128.32 128.15 128.22 128.3 130.37 132.4 130.74 129.24 129.08 131.77 130.57 130.33 130.45 129.93 129.27 128.75 126.19 127.66 126.36 125.68 125.68 125.69 125.69 125.69 125.69 125.69 125.69 125.7 125.7 125.71 126.48 130.31 130.01 126.94 125.79 127.23 127.46 125.74 125.74 125.75 126.42 127.03 126.71 125.76 125.76 125.76 125.76 127.69 129.41 129.63 130.44 134.5 141.69 147.77 152.53 -9999 -9999
-9999 -9999 -9999 170.62 168.94 167 164.48 161.2 158.93 157.4 156.13 154.77 153.88 153.1 152.59 152.14 152.58 152.68 152.35 151.9 151.37 149.82 148.15 146.81 147.04 147.88 147.85 148.13 148.95 149.17 148.34 148.39 148.58 148.6 146.7 144.11 142.98 140.27 139.57 139.39 138.64 137.62 137.33 136.83 136.19 136.23 136.58 137.15 137.17 137.74 138.28 138.93 139.37 139.26 139.1 138.74 137.67 137.15 136.68 136.55 136.06 135.71 134.68 134.05 133.34 132.54 132.57 132.71 132.51 132.15 131.64 130.58 128.53 126.45 127.18 127.87 129.2 129.16 128.97 128.61 129.12 132.06 131.93 129.7 128.66 130.13 131.77 130.17 130.35 130.32 129.85 129.65 129.12 126.88 126.66 125.76 125.68 125.68 125.67 125.68 125.68 125.68 125.69 125.69 125.69 125.69 125.84 129.31 129.38 126.33 125.83 127.88 130.27 126.32 125.72 125.72 125.92 127.3 127.71 127.06 125.74 125.74 125.74 125.74 127.65 129.35 129.63 130.62 135.13 141.98 149.12 154.75 -9999 -9999
-9999 -9999 -9999 166.97 164.45 162.49 160.71 158.81 157.61 156.95 156.31 155.28 154.78 153.65 152.81 151.95 151.35 150.9 150.12 149.51 149.07 147.66 146.96 147.09 146.87 147.01 147.16 147.61 148.52 148.35 148.35 148.4 148.31 148.26 146.85 143.93 142.89 140.83 140.02 139.55 138.63 137.64 137.33 136.77 136.12 136.28 136.6 136.87 136.93 137.39 137.86 138.34 138.86 138.78 138.57 137.6 137 136.75 136.52 136.13 135.7 135.21 134.43 133.65 132.86 132.55 132.55 132.67 132.34 132.29 132.2 130.64 128.03 126.36 126.73 128.89 129.89 129.98 130.06 129.63 131.27 132.36 130.81 129.06 129.46 131.2 131.28 130.18 130.14 130.19 129.69 129.69 129.45 126.86 126.13 125.68 125.67 125.67 125.67 125.67 125.67 125.67 125.67 125.68 125.68 125.68 127.71 129.14 126.06 126.09 128.78 130.58 128.54 125.7 125.7 125.71 126.73 127.84 128.19 127.31 125.72 125.72 125.72 125.72 127.68 129.32 129.63 130.9 135.72 142.7 150.34 157.06 -9999 -9999
-9999 -9999 -9999 165.37 162.93 161.16 159.99 159.14 158.82 158.19 157.42 156.34 155.94 153.24 151.82 151.89 150.69 149.77 148.62 147.36 147.86 147.13 146.94 146.75 146.52 146.39 146.35 146.99 148.06 148.25 148.31 148.31 148.2 148.09 147.78 145.7 143.69 142.79 140.43 139.42 138.6 137.75 137.2 136.52 135.97 136.17 136.49 136.59 136.83 137.06 137.45 137.77 138.04 137.94 137.99 137.12 136.7 136.38 136.15 135.95 135.53 134.66 134.03 132.9 132.66 132.82 132.49 132.31 132.15 132.29 132.06 129.6 127.37 126.31 127.37 130.16 130.05 130.06 130.25 130.69 132.39 131.55 129.03 129.25 130.55 132.02 130.89 130.43 129.88 129.94 129.68 129.65 129.51 126.45 125.66 125.66 125.66 125.66 125.67 125.67 125.67 125.67 125.67 125.66 125.67 126.02 128.82 126.09 126.56 129.55 130.5 130.82 126.43 125.68 125.69 125.77 127.56 128.12 128.25 127.68 125.72 125.7 125.7 125.7 127.62 129.26 129.59 131.26 136.3 142.16 150.38 158.13 -9999 -9999
-9999 -9999 -9999 163.48 163.72 162.31 161.15 160.19 160.39 159.5 158.71 157.61 157.02 152.27 149.7 151.51 150.46 148.77 147.38 147.06 147.01 146.6 146.3 145.95 145.82 145.66 145.54 146.2 147.44 148.26 148.33 148.34 148.22 148.03 147.94 146.57 144.46 143.21 140.52 139.44 138.22 137.17 136.83 136.32 135.91 136.09 136.35 136.54 136.72 136.77 136.71 137.08 137.24 137.31 137.23 136.68 136.49 136.27 136.07 135.65 134.98 134.22 133.55 132.82 132.48 132.63 132.62 132.44 132.18 131.96 131.19 128.83 126.68 126.3 128.77 130.15 130.12 130.17 129.4 131.86 132.35 129.38 129.03 130.31 131.38 131.37 130.97 130.66 129.7 129.9 129.87 129.57 129.11 125.82 125.63 125.64 125.64 125.65 125.66 125.66 125.66 125.66 125.66 125.66 125.66 127.55 126.55 126.33 129.77 130.32 130.91 129.74 125.71 125.68 125.67 126.03 127.9 128.2 128.46 127.87 125.71 125.69 125.69 125.69 127.38 129.28 129.69 131.82 137.17 142.47 150.27 159.5 -9999 -9999
-9999 -9999 -9999 164.99 165.24 163.38 162.58 161.78 161.97 160.9 159.95 158.91 157.98 155.07 152.81 152.41 150.99 148.61 147.48 147.21 146.05 145.77 145.39 145.23 145.24 145.26 145.35 146.73 147.49 148.25 148.33 148.35 148.19 148.02 147.97 146.78 144.77 143.91 141.85 140.68 137.68 137.08 137.02 136.47 135.89 136.1 136.17 136.42 136.48 136.43 136.38 136.72 136.9 137.08 136.76 136.47 136.2 136.13 136.11 135.49 134.76 133.92 133.26 132.84 132.75 132.7 132.79 132.49 132.2 132 130.97 127.99 126.27 126.72 129.95 130.06 130.18 129.26 130.9 132.92 131.3 129.39 129.95 130.49 131.91 130.86 130.97 130.66 129.61 130.16 129.87 129.62 128.14 125.61 125.61 125.61 125.62 125.63 125.63 125.64 125.65 125.65 125.65 125.65 125.76 127.01 125.82 128.86 130.06 130.63 130.93 127.35 125.67 125.67 125.67 126.48 128 128.6 128.9 128.02 125.7 125.68 125.68 125.68 127.33 129.28 129.75 132.55 138 143.78 152.75 -9999 -9999 -9999
-9999 -9999 -9999 166.57 166.8 165.11 164.66 163.64 163.53 162.48 161.2 160.05 158.45 156.23 154.66 153.46 151.87 149.85 147.85 147.39 145.88 144.78 144.31 144.59 144.84 144.97 145.48 146.49 147.24 148.25 148.34 148.34 148.17 147.96 147.93 146.8 144.85 143.83 142.33 141.24 137.76 137.2 137.06 136.5 135.89 135.94 136.02 136.16 136.24 136.15 136.31 136.48 136.74 136.81 136.47 136.24 136.03 136.11 135.79 135.23 134.47 133.59 133.09 132.78 132.72 132.41 132.36 132.02 132.09 131.9 130.63 127.15 126.23 127.9 130.2 130.08 129.75 129.89 133.28 132.95 130.44 129.97 130.1 131.76 131.19 130.94 130.89 130.68 129.57 130.19 129.75 129.53 126.59 125.59 125.6 125.6 125.61 125.61 125.62 125.62 125.62 125.63 125.64 125.64 125.77 125.73 127.4 129.96 130.21 130.79 130.51 125.95 125.66 125.66 125.67 126.86 127.86 128.9 129.45 128.23 125.7 125.67 125.68 125.68 127.38 129.31 129.88 133.84 138.59 145.5 154.41 -9999 -9999 -9999
-9999 -9999 -9999 168.45 168.64 167.25 166.74 165.57 164.61 163.87 162.3 161.14 158.92 156.89 155.39 154.03 152.58 150.53 148.69 147.38 145.61 144.57 144.13 144.18 144.12 144.63 145.47 146.24 146.99 148.24 148.32 148.32 148.14 147.87 147.84 146.74 144.94 143.74 142.29 141.19 137.76 137.29 137.07 136.52 135.92 135.85 135.89 135.8 135.7 135.84 136.14 136.29 136.51 136.37 136.34 136.11 136.02 135.95 135.42 134.9 134.37 133.14 132.73 132.62 132.6 132.24 132.03 131.96 132.08 131.86 129.27 126.39 126.27 129.38 130.01 130.06 128.97 132.91 134.12 131.97 130.36 130 130.69 131.59 130.9 131 130.97 130.48 129.46 130.01 129.56 128.61 125.63 125.59 125.59 125.6 125.6 125.6 125.61 125.61 125.62 125.62 125.63 125.63 125.64 125.85 128.97 129.96 130.39 130.88 129.49 125.67 125.65 125.65 125.77 126.99 128.5 130.14 129.87 128.22 125.67 125.66 125.67 125.67 127.7 129.41 130.45 135 140.48 147.55 155.84 -9999 -9999 -9999
-9999 -9999 -9999 170.27 170.39 169.65 169.06 167.81 166.7 165.84 164.26 162.89 160.05 158.05 156.54 154.83 153.71 150.9 149.24 147.57 145.83 144.66 143.95 143.81 143.71 144.15 144.99 145.84 146.59 148.14 148.3 148.3 148.1 147.77 147.73 146.66 144.91 143.59 141.75 140.82 138.02 137.06 136.86 136.45 135.95 135.8 135.54 135.46 135.28 135.55 135.71 136.03 135.99 135.97 136.08 135.99 135.7 135.6 135.33 134.51 133.68 133.05 132.8 132.68 133.01 132.71 132.03 131.92 131.97 131.28 127.65 126.18 127.09 130.24 129.91 129.15 131.74 135 133.98 130.49 130.18 130.22 131.63 130.6 130.85 131.01 131.12 130.07 129.38 129.88 129.6 126.91 125.58 125.58 125.59 125.59 125.59 125.6 125.6 125.61 125.61 125.62 125.62 125.62 125.63 126.41 129.62 130.05 130.55 131.05 128.22 125.64 125.64 125.64 125.91 127.26 129.39 130.54 129.91 127.71 125.65 125.65 125.66 125.66 127.78 129.39 131.44 136.16 141.93 147.32 153.63 -9999 -9999 -9999
-9999 -9999 -9999 172.63 171.8 171.93 171.43 170.81 169.51 168.1 166.47 164.86 161.86 159.54 157.6 155.57 154.4 151.56 150.2 147.96 146.16 144.58 143.48 143.49 143.45 143.56 144.19 144.93 145.91 146.83 147.55 147.86 147.68 147.74 147.36 145.95 144.67 143.95 141.85 140.35 139.29 138.24 137.09 136.37 135.85 135.49 135.14 135.07 134.76 135.18 135.23 135.24 135.15 135.66 135.85 135.78 135.34 135.47 134.94 134.08 133.49 133.07 132.92 132.69 133.21 132.53 132.09 132.01 131.92 129.68 126.57 126.15 128.44 130 129.47 129.06 135.06 135.74 132.14 129.6 129.65 131.27 130.22 129.98 130.49 130.94 131.07 129.53 129.38 130 128.98 125.69 125.58 125.58 125.58 125.58 125.59 125.59 125.6 125.6 125.6 125.61 125.61 125.62 125.62 127.07 129.99 130.22 130.62 131.05 127.52 125.63 125.63 125.64 126.08 127.66 130.03 130.47 129.89 127.25 125.65 125.65 125.65 125.66 127.97 129.28 132.68 138.1 142.4 148.98 155.36 -9999 -9999 -9999
-9999 -9999 -9999 174.1 174.03 174.1 173.64 173.05 172.09 170.43 168.34 166.65 163.89 160.67 158.01 156.16 154.77 152.21 150.76 148.73 146.68 144.33 143.53 143.51 143.27 142.66 142.81 144.25 145.02 146.2 147.02 147.71 147.33 147.55 146.67 145.61 144.63 144.02 141.45 139.93 139.12 138.07 136.79 136.4 135.98 135.47 135.05 134.75 134.67 134.74 134.76 134.6 134.94 135.5 135.64 135.31 134.97 134.75 134.33 133.41 133.12 132.96 132.65 132.68 132.58 132.29 131.96 131.75 131.14 128.33 126.18 126.17 128.77 129.27 128.66 132.04 136.79 135 130.03 129.4 130.7 131.68 130.23 129.83 130.06 130.83 130.79 129.16 129.47 130.02 127.02 125.57 125.57 125.58 125.58 125.58 125.58 125.59 125.59 125.59 125.6 125.6 125.61 125.61 125.61 128.15 129.99 130.33 130.81 130.93 126.21 125.63 125.63 125.63 126.26 128.18 130.41 130.39 129.83 126.53 125.64 125.64 125.65 125.65 128.21 130.02 134.22 140.28 147.06 155.27 159.67 -9999 -9999 -9999
-9999 -9999 -9999 175.81 176 176.34 175.7 174.84 173.77 172.59 170.92 169.08 165.87 162.15 159.13 157.48 155.67 152.76 151.03 147.98 146.98 144.44 143.52 143.61 143.16 142.1 141.99 143.37 144.31 145.66 146.62 146.99 146.67 146.75 145.68 144.86 143.95 142.83 140.96 139.87 138.89 137.79 136.85 136.5 136.16 135.54 135.12 135.04 135.22 134.84 134.8 134.69 135.08 135.31 135.15 134.56 134.33 134.27 133.61 133.13 133.01 132.9 132.71 132.8 132.57 132.34 132 131.68 130.16 127.39 126.1 126.18 128.42 128.93 129.73 136.93 137.04 131.27 129.82 130.44 132.21 131.66 131.84 131.29 130.4 129.91 129.78 129 129.73 129.36 125.76 125.57 125.57 125.57 125.57 125.58 125.58 125.58 125.58 125.59 125.59 125.6 125.6 125.6 125.94 129.64 130.05 130.73 131.11 129.69 125.7 125.62 125.62 125.62 126.33 128.84 130.53 129.99 129.31 125.78 125.63 125.64 125.64 125.65 128.71 131.66 135.78 143.76 153.34 165.25 169.9 -9999 -9999 -9999
-9999 -9999 -9999 178.08 178.25 177.95 177.26 176.41 175.5 175.16 172.92 170.88 168.15 164.18 160.62 158.28 156.2 153.32 150.81 148.46 148.13 145.06 143.53 143.36 142.67 141.79 141.8 143.4 143.81 145 145.81 146.14 146.1 146.33 144.53 143.75 143.2 142.4 140.41 139.5 138.49 137.59 136.94 136.71 136.22 135.81 135.51 135.54 135.57 135.44 135.45 135.23 135.09 135.09 134.79 134.44 134.03 133.87 132.98 133.02 132.9 132.79 132.76 132.74 132.62 132.33 132.12 131.49 129.14 126.73 126.08 126.42 128.51 128.52 135.31 138.58 134.55 130.04 130.41 131.82 132.6 132.03 132.25 132.33 131.99 131.11 129.29 128.9 129.68 127.44 125.56 125.56 125.57 125.57 125.57 125.57 125.57 125.57 125.58 125.58 125.58 125.59 125.59 125.6 127.99 130.11 130.38 130.81 130.97 128.74 125.61 125.61 125.61 125.61 126.29 129.6 130.53 130.14 128.42 125.63 125.63 125.63 125.63 125.95 129.5 133.49 138.48 147.79 159.57 173.26 178.84 -9999 -9999 -9999
-9999 -9999 178.06 178.67 178.8 178.5 177.83 177.05 176.06 175.16 173.39 171.92 170.15 164.9 161.56 159.01 155.76 153.65 150.6 148.94 148.49 144.83 143.35 143.28 142.36 141.47 141.46 143.21 143.31 144.05 144.63 145 145.26 145.5 143.57 142.79 142.14 141.14 139.91 138.88 138.08 137.69 136.94 136.72 136.27 136.01 135.86 136.08 136.02 136.02 135.97 136.02 135.37 135.01 134.45 134.35 134.03 133.7 132.88 132.8 132.86 132.83 132.58 132.45 132.29 132.16 132 130.65 128.03 126.1 126.06 126.68 128.3 132.17 139.18 138.07 131.03 130.56 131.72 132.51 132.52 132.25 132.41 132.48 132.18 131.44 129 129.07 129.25 125.79 125.54 125.55 125.55 125.56 125.56 125.57 125.57 125.57 125.57 125.57 125.58 125.58 125.58 125.81 129.62 130.31 130.37 130.68 130.89 128.08 125.6 125.6 125.61 125.61 126.09 130.14 130.3 130.32 127.16 125.62 125.62 125.62 125.63 126.72 130.69 135.31 143.15 151.83 166.46 175.5 179.4 -9999 -9999 -9999
-9999 -9999 177.06 178 178.34 178.04 177.55 176.71 175.72 174.49 172.89 171.95 169.58 164.23 161.94 158.65 155.56 153.67 150.35 148.95 148.39 144.08 142.89 143.16 142.17 141.23 140.79 142.05 142.6 143.48 144.12 144.76 144.36 144.21 142.79 142.33 141.21 140.41 139.31 138.63 137.79 137.35 136.77 136.74 136.5 136.14 136.34 136.33 136.35 136.25 136.19 135.93 135.43 135.01 134.4 133.87 133.79 133.8 133.33 132.86 132.97 132.66 132.46 132.22 132.43 132.05 131.37 129.4 127.11 126.03 126.04 127.03 129.49 138.4 140.19 134.29 130.7 131.68 132.55 132.35 132.71 132.45 132.55 132.5 132.21 131.18 128.92 129.17 127.16 125.53 125.53 125.54 125.54 125.55 125.55 125.56 125.56 125.56 125.57 125.57 125.57 125.57 125.58 127.16 130.32 130.33 130.43 130.75 131 127.35 125.59 125.6 125.89 125.65 126.01 130.16 130.15 130.16 126.16 125.61 125.62 125.62 125.64 128.11 132.78 138.81 146.63 155.45 168.83 173.93 176.03 -9999 -9999 -9999
-9999 -9999 176.55 177.2 177.74 177.19 176.46 175.63 173.79 172.59 172.14 171.28 167.98 162.86 160.06 156.87 154.85 153.42 149.85 148.89 148.28 143.94 142.69 142.5 141.9 140.89 140.41 141.75 141.86 142.59 143.41 144.13 143.51 143.22 142.04 141.17 140.16 139.35 138.51 138.2 137.48 137.02 136.6 136.81 136.54 136.04 136.28 136.38 136.3 136.15 135.9 135.61 135.42 135.04 134.85 133.66 133.38 133.07 132.91 132.91 132.95 132.52 132.42 132.16 132.68 132.28 131.92 130.46 126.34 126.01 127.04 128.52 134.77 140.63 138.57 131.36 131.54 132.47 132.36 132.44 132.81 132.7 132.6 132.46 132.28 130.49 128.89 128.07 125.58 125.52 125.52 125.53 125.53 125.54 125.54 125.54 125.55 125.55 125.56 125.56 125.56 125.57 125.68 129.24 130.24 130.18 130.35 130.91 130.27 126.22 125.59 125.66 126.85 125.95 125.74 129.52 130.03 129.13 125.65 125.6 125.61 125.61 126.18 131.04 135.53 141.28 146.79 156.54 165.87 169.29 170.61 -9999 -9999 -9999
-9999 -9999 176.15 176.42 176.67 176.16 175.48 174.16 172.61 172.27 170.41 168.5 164.84 160.47 157.85 155.15 154.09 152.65 149.4 148.81 148.23 143.98 142.64 140.85 140.83 140.48 140.01 140.94 140.95 141.52 141.99 142.82 142.31 141.49 140.65 140.36 139.43 138.85 137.98 137.72 137.11 136.91 136.46 136.79 136.5 136.1 136.02 136.12 135.97 135.9 135.78 135.4 135.1 133.66 133.48 133.02 133.18 133.6 133.66 133.19 132.7 132.1 132.06 132.27 132.24 132.27 131.54 128.01 126.07 126.53 128.05 131.1 134.63 135.06 133.91 132.57 132.44 132.36 132.52 132.62 132.9 132.96 132.65 132.47 132.3 129.83 128.76 126.07 125.51 125.51 125.51 125.52 125.52 125.52 125.53 125.53 125.54 125.54 125.54 125.55 125.55 125.56 126.71 130.03 130.16 130.13 130.54 130.95 128.88 125.61 125.58 125.93 127.44 126.27 125.59 128.27 129.95 127.33 125.59 125.6 125.6 125.6 128.16 133.22 138.06 140.51 145.57 153.91 159.98 162.63 163.76 -9999 -9999 -9999
-9999 -9999 175.61 175.82 176.08 175.61 175 173.67 172.16 172.28 169.63 167.87 162.56 159.29 156.98 154.92 153.71 151.73 149.12 148.7 148.13 144.04 142.66 140.52 140.54 140.03 139.66 139.86 139.97 140.42 140.67 141.02 140.63 140.15 139.31 138.77 138.37 138.05 137.43 137.22 136.72 136.67 136.29 136.52 136.45 136.17 135.92 135.88 135.77 135.67 135.35 135.31 134.62 133.63 133.18 133.42 133.94 134.14 134.12 133.2 132.56 131.77 131.49 131.54 132.16 132.26 130.01 126.15 126.74 127.84 129.18 137.95 141.42 137.32 131.82 131.8 132.14 132.37 132.61 132.9 133.39 133.37 133.09 132.63 131.89 129.29 127.09 125.49 125.49 125.5 125.5 125.51 125.51 125.52 125.52 125.52 125.52 125.53 125.53 125.54 125.54 125.55 127.85 129.82 130.08 129.95 130.75 130.16 126.62 125.57 125.57 126.97 128.01 126.9 125.58 127.5 129.35 125.92 125.59 125.59 125.59 125.93 131.2 136.72 141.85 141.25 142.52 146.32 150.38 152.14 152.59 -9999 -9999 -9999
-9999 -9999 175.27 175.41 175.3 175.08 174.41 173.27 172.65 172.45 170.52 167.74 161.3 159.52 156.81 154.62 153.17 151.06 148.69 147.59 146.22 143.83 142.68 141.48 141.26 139.99 139.44 139.55 139.61 139.83 139.82 139.97 139.52 139.3 138.5 138.39 137.94 137.44 136.82 136.91 136.53 136.45 136.01 136.25 136.28 136.01 135.7 135.53 135.35 135.25 135.09 134.88 134.3 133.39 133.48 133.94 134.17 134.79 134.22 133.35 132.37 131.91 131.57 131.31 130.94 131.01 128.25 126.1 127.56 128 133.98 142.02 141.6 133.6 131.42 131.44 131.74 132.1 132.26 132.36 132.57 132.84 133 132.88 132.22 129.87 125.67 125.48 125.48 125.49 125.49 125.5 125.5 125.5 125.51 125.51 125.52 125.52 125.52 125.53 125.53 125.66 129.1 129.86 129.97 130.45 130.35 127.86 125.69 125.56 126.01 128.63 128.13 127.39 125.65 126.99 127.67 125.58 125.58 125.58 125.59 128.41 133.79 142.65 148.62 149.17 148.69 146.93 148.89 151.67 155.97 -9999 -9999 -9999
-9999 -9999 175.05 174.82 174.37 173.42 172.18 172.26 172.65 172.22 170.69 168.03 162.74 159.64 156.44 154.18 152.78 150.89 148.77 147.1 145.45 144.22 143.27 142.29 141.29 140.03 139.34 139.34 139.34 139.17 139 139.03 138.74 138.42 137.88 137.92 137.51 137.04 136.49 136.67 136.34 136.36 135.94 136.07 135.98 135.77 135.52 135.41 135.04 134.98 134.83 134.35 133.87 133.43 133.67 134.23 134.91 135.52 134.39 133.26 132.51 131.96 131.77 131.41 130.76 130.05 126.71 126.51 127.75 130.23 140.17 142.75 137.43 131.42 131.31 131.44 131.71 132.11 132.31 132.27 132.34 132.27 132.42 132.19 130.13 127.07 125.46 125.46 125.47 125.47 125.48 125.48 125.49 125.49 125.5 125.5 125.51 125.51 125.51 125.52 125.52 126.62 129.6 129.84 130.34 130.11 128.22 125.95 125.55 125.72 128.46 129.6 128.64 127.09 125.88 126.18 125.85 125.57 125.57 125.58 126.36 131.88 139.62 150.83 158.94 160.23 158.84 155.41 161.46 165.54 169.39 -9999 -9999 -9999
-9999 -9999 174.64 174.49 173.48 172.01 170.99 171.07 171.29 171.02 169.63 166.74 162.78 158.47 155.42 153.99 152.53 150.33 148.66 147.19 145.75 144.72 143.55 142.67 141.21 140.18 139.48 139.26 139.1 139.17 138.46 138.6 138.29 138.35 137.39 137.43 137.07 136.6 136.22 136.37 136.1 136.27 135.75 135.68 135.52 135.7 135.62 135.19 134.87 134.74 134.62 134.02 133.57 133.74 133.89 134.85 135.58 135.55 134.5 133.08 132.45 132.05 131.82 131.55 130.84 129.3 126.01 126.85 128.34 136.19 142.67 140.97 132.46 131.34 131.26 131.38 131.65 132.15 132.3 132.25 132.25 132.04 131.98 131.28 128.4 125.51 125.45 125.45 125.46 125.46 125.47 125.47 125.48 125.48 125.48 125.49 125.49 125.5 125.5 125.51 125.51 127.62 129.99 130.21 129.28 127.43 125.82 125.54 125.74 128.19 130.54 130.09 129.12 126.95 125.89 125.56 125.56 125.56 125.57 125.81 129.49 135.33 146.85 157.53 169.59 171.57 169.35 164.09 170.66 175.15 178.37 -9999 -9999 -9999
-9999 -9999 174.17 174.02 173.3 171.7 170.46 169.53 169.49 169.14 167.73 164.23 160.18 156.98 154.75 153.58 152.11 150.13 148.57 147.68 146.55 145.59 144.17 142.77 141.62 141 140.23 139.27 138.92 138.65 138.24 137.82 137.81 137.38 137.02 136.95 136.84 136.46 136.22 136.06 135.94 135.91 135.61 135.36 135.05 135.16 135.26 134.98 134.69 134.43 134.19 133.7 133.8 133.83 134.28 135.51 135.88 135.71 134.19 133.03 132.43 132.11 131.66 131.28 130.58 127.75 125.9 127.58 131.45 141.32 142.45 135.43 130.96 131.36 131.28 131.34 131.66 132.05 132.03 132.09 131.96 131.9 131.75 130.38 126.22 125.44 125.44 125.44 125.45 125.45 125.46 125.46 125.46 125.47 125.47 125.48 125.48 125.49 125.49 125.49 125.51 128.79 130.08 127.82 125.91 125.54 125.55 126.13 128.78 130.85 130.86 130.23 129.18 126.55 125.62 125.55 125.55 125.56 125.85 129.34 133.02 142.97 154.02 167.95 174.89 176.58 175.2 171.87 173.15 176.32 179.52 -9999 -9999 -9999
-9999 -9999 173.99 173.56 173.07 172.05 170.71 169.07 168.4 167.58 164.35 160.84 158.48 156.68 154.63 153.57 151.94 149.9 148.59 147.8 146.77 145.55 145.45 143.54 142.87 142.67 141.58 140.9 140.09 139.57 139.22 138.65 138.85 137.59 137.88 138.26 137.63 137.7 136.51 136.37 136.13 135.48 135.06 135.17 134.74 134.55 134.84 134.87 134.52 134.24 134.03 133.63 133.86 134.36 135.26 135.98 136.23 135.86 133.7 133.05 132.46 132.08 131.49 131.24 130.53 126.46 126.45 128.61 136.86 142.46 139.42 131.17 131.11 131.32 131.34 131.34 131.7 131.86 131.85 131.92 131.66 131.7 131.32 128.54 125.44 125.43 125.43 125.52 125.44 125.44 125.45 125.45 125.45 125.46 125.46 125.47 125.47 125.48 125.48 125.49 125.72 130.19 128.17 125.56 125.5 125.51 127.16 131.34 131.91 131.88 131.59 130.89 128.13 125.87 125.54 125.54 125.55 125.55 127.21 130.96 137.64 148.65 158.52 172.45 177.68 178.6 178.06 175.96 175.45 176.84 178.06 -9999 -9999 -9999
-9999 -9999 173.76 173.49 172.43 171.29 170.14 168.67 167.33 165.58 162.65 160.67 158.44 156.43 154.68 153.6 151.41 149.82 148.52 148.05 146.7 145.86 145.64 144.62 143.99 143.57 142.71 141.74 141.19 140.3 139.95 139.77 139.31 138.74 138.55 138.56 138.14 138.65 137.03 136.69 136.29 135.71 134.84 134.79 134.81 134.59 134.53 134.72 134.38 134.12 133.8 133.68 134.27 135.05 135.74 136.3 136.69 135.78 133.69 132.94 132.41 132.02 131.44 130.87 128.38 125.86 127.4 131.22 140.82 141.52 133.63 130.6 131.25 131.34 131.4 131.33 131.58 131.63 131.7 131.74 131.52 131.36 130.83 126.72 125.41 125.42 125.62 125.74 125.42 125.43 125.43 125.44 125.45 125.45 125.45 125.46 125.46 125.47 125.47 125.48 126.47 129.52 125.72 125.49 125.49 125.92 129.45 130.63 130.83 130.98 130.76 130.81 127.26 125.54 125.53 125.53 125.54 125.6 129.15 133.7 145.69 153.44 163.62 172.35 177.75 178.12 177.89 176.76 174.58 170.93 168.35 -9999 -9999 -9999
-9999 -9999 173.77 173.13 171.8 170.81 169.49 168.52 166.9 164.96 162.27 160.9 158.83 156.83 155 153.87 151.33 150.03 148.67 148.43 147.57 147.05 146.14 145.7 144.79 144.11 143.22 142.5 142.35 141.24 141.13 140.45 140.01 139.48 138.98 138.58 138.29 137.98 137.21 136.67 136.29 136.06 135.48 135.03 134.93 134.74 134.38 134.3 134.34 134.18 133.92 133.89 134.6 135.68 136.3 136.59 136.64 135.54 133.76 132.96 132.61 131.93 131 129.84 126.17 126.31 128.3 135.88 141.53 138.17 130.38 131.02 131.38 131.37 131.47 131.25 131.29 131.3 131.33 131.43 131.15 131.07 130.15 125.72 125.4 125.45 126.04 125.48 125.41 125.42 125.42 125.43 125.43 125.43 125.44 125.44 125.45 125.46 125.46 125.47 127.05 126.38 125.82 125.49 125.58 129.11 130.73 130.63 130.55 130.72 130.48 129.83 125.83 125.5 125.51 125.52 125.54 127.44 131.9 140.98 149.57 154.65 160.9 165.79 170.61 171.69 171.17 169.55 162.71 154.9 151.63 -9999 -9999 -9999
-9999 -9999 174.44 173.33 172.17 171.06 169.67 168.39 165.93 164.62 163.25 161.8 159.81 157.53 156.13 154.37 152.6 152.35 152.07 150.02 148.04 147.37 146.44 146.31 145.78 144.81 144.45 144.19 143.23 143.15 142.15 140.91 140.52 139.77 139.28 138.76 138.19 137.95 137.28 136.59 136.12 135.89 135.65 135.42 135.15 134.98 134.65 134.5 134.4 134.35 134.12 134.35 134.97 136.05 136.71 136.85 136.53 134.94 133.46 132.81 132.39 131.75 130.47 128.01 125.81 127.27 129.77 139.42 140.59 133.16 130.46 131.43 131.45 131.35 131.36 131.26 131.18 131.04 130.99 130.94 130.91 131.09 128.4 125.4 125.39 125.77 125.92 125.41 125.41 125.41 125.42 125.42 125.42 125.43 125.43 125.43 125.44 125.44 125.45 125.45 126.2 127.25 125.9 125.48 127.83 130.76 130.75 130.47 130.4 130.61 130.51 127.04 125.49 125.49 125.5 125.51 126.36 129.66 134.73 144.02 148.12 150.59 153.79 157.78 159.07 159.01 158.18 155.64 149 148.07 150.81 -9999 -9999 -9999
-9999 -9999 175.25 174.41 173.32 171.93 170.71 169.36 167.14 165.85 164.81 162.93 161.16 158.88 157.58 155.17 154.02 153.85 152.88 151.39 150.09 149.38 148.4 148.22 148.12 146.77 145.61 145.41 144.54 143.4 142.18 141.05 140.32 139.63 139.15 138.41 137.81 137.49 137.2 136.73 136.28 136.04 135.8 135.57 135.37 135.02 134.53 134.29 134.42 134.31 134.21 134.62 135.18 136 136.67 136.57 136.14 134.45 133.44 132.67 132.25 131.3 129.5 126.41 126 127.86 133.09 140.29 137.88 130.38 131.19 131.5 131.46 131.41 131.26 131.02 130.84 131.03 131.15 131.03 131.14 130.63 126.52 125.39 125.57 126.2 125.57 125.4 125.4 125.41 125.41 125.41 125.42 125.42 125.42 125.43 125.43 125.43 125.44 125.47 127.44 127.21 125.48 126.24 130.51 130.83 130.57 130.3 130.49 130.42 128.52 125.51 125.48 125.49 125.49 125.55 128.56 132.88 140.75 137.89 136.22 140.09 144.54 146.27 147.09 146.89 146.28 145.54 146.15 151.91 154.31 -9999 -9999 -9999
-9999 -9999 175.84 175.26 174.64 173.1 171.52 170.57 169.51 168.5 166.84 164.73 162.65 160.66 158.91 156.53 155.12 155.03 153.81 152.75 151.99 151.25 150.32 149.95 149.35 148.4 147.42 146.59 145.41 144.35 143.15 141.32 140.55 139.85 139.75 138.74 138.04 137.65 137.33 136.84 136.51 136.25 135.94 135.7 135.26 134.45 134.13 134.37 134.33 133.93 133.9 134.84 135.49 136.08 136.4 136.17 135.64 134.21 133.29 132.66 131.99 130.75 128.24 125.81 126.58 128.22 136.58 139.79 133.94 130.23 131.23 131.35 131.48 131.59 131.16 131.02 130.93 131.08 131.06 131.08 131.56 129.24 125.51 125.54 125.93 126.09 125.39 125.39 125.39 125.4 125.4 125.4 125.41 125.41 125.41 125.42 125.42 125.43 125.43 125.75 127.43 125.7 125.49 128.97 130.74 130.74 130.39 130.23 130.42 129.94 125.96 125.47 125.48 125.48 125.49 126.85 131.38 137.67 145.01 142.59 141.33 140.39 139.39 139.47 140.76 141.92 143.6 147.34 152.43 157.62 161.5 -9999 -9999 -9999
-9999 -9999 175.3 174.93 174.23 172.84 171.86 170.69 169.49 168.64 166.83 164.55 162.7 161.18 159.44 156.96 155.44 154.72 153.56 152.8 152 151.55 151.36 150.21 149.15 148.56 147.57 147.09 145.47 144.91 143.33 141.36 141.28 140.12 139.24 138.52 137.98 137.75 137.53 137.07 136.49 136.23 135.77 135.4 135.03 134.63 134.68 134.6 134.22 133.89 134.16 135.35 135.85 136.45 136.55 136.19 135.35 134.07 133.16 132.53 131.81 130.97 127.11 125.76 127.36 129.73 138.5 138.38 131.01 130.68 131.37 131.34 131.56 131.44 131.2 131.02 131.05 130.97 130.97 131.16 131.3 127.45 125.38 125.68 126.11 125.51 125.38 125.38 125.39 125.39 125.39 125.4 125.4 125.4 125.41 125.41 125.41 125.42 125.42 126.2 126 125.43 126.82 130.45 130.69 130.5 130.17 130.07 130.28 126.91 125.46 125.46 125.47 125.47 125.57 129.53 136.76 146.02 148.25 149.01 149.36 149.56 148.79 146.74 147.34 150.19 153.01 154.81 157.67 164.63 168.12 -9999 -9999 -9999
-9999 -9999 174.95 174.17 173.36 171.99 171.81 170.36 167.63 166.05 163.78 161.7 160.61 159.81 158.29 155.51 153.23 151.41 149.69 149.54 149.34 148.95 148.74 146.74 146.58 147.16 147.01 146.19 145.06 144.5 142.79 141.37 140.69 139.7 138.78 138.14 137.8 137.55 137.26 137.05 136.44 135.86 135.28 134.99 134.86 134.84 134.77 134.65 134.58 134.3 134.83 135.56 136.15 136.77 136.69 136.29 135.06 134.13 133.05 132.45 131.4 129.82 126.09 125.85 127.96 131.21 137.14 135.44 130.23 131.09 131.54 131.61 131.65 131.16 131.05 130.95 130.96 130.88 131.05 131.24 130.69 126.1 125.37 125.41 125.6 125.38 125.38 125.38 125.38 125.39 125.39 125.39 125.4 125.4 125.4 125.41 125.41 125.41 125.42 125.59 125.43 125.81 129.76 130.44 130.6 130.21 129.8 130.27 128.02 125.45 125.45 125.46 125.46 125.46 126.94 134.69 147.48 151.79 154.03 155.22 154.02 154.48 155.84 153.95 152.4 157.37 163.23 165.16 165.82 171.58 174.87 -9999 -9999 -9999
-9999 -9999 173.86 173.65 173.38 172.46 171.44 170.32 166.4 164.34 161.87 159.35 157.81 156.57 155.47 153.48 151.39 149.78 149.17 148.98 147.74 147.25 146.54 145.31 144.13 145.06 145.03 144.51 143.84 143.36 142.03 141.37 139.83 139.08 138.2 137.98 137.92 137.91 137.33 137.38 136.84 136.18 135.44 134.47 134.4 134.75 134.08 133.81 133.93 134.11 135.08 135.67 136.43 136.8 136.62 136.24 134.94 133.95 132.91 132.2 129.99 127.58 125.74 126.9 128.43 133.5 134 131.69 130.89 131.46 131.47 131.45 131.43 131.17 131.14 130.84 130.86 130.88 130.99 131.33 128.88 125.45 125.37 125.43 125.49 125.37 125.37 125.37 125.38 125.38 125.38 125.39 125.39 125.39 125.4 125.4 125.4 125.41 125.41 125.41 125.5 128.69 130.41 130.4 130.37 129.7 129.73 129.71 125.74 125.44 125.44 125.45 125.45 125.54 130.68 145.59 154.97 157.12 159.5 160.44 161.97 162.97 164.7 164 157.75 161.8 170.56 173.56 173.94 176.72 180.28 -9999 -9999 -9999
-9999 -9999 172.71 173.26 173 172.31 171.12 169.62 166.24 163.42 160.23 157.47 155.71 154.67 153.68 151.43 149.76 148.88 148.61 148.23 146.69 146.19 145.42 144.69 144.04 143.91 144.39 143.94 142.91 142.53 141.45 140.62 138.94 138.21 138.19 138.23 138.21 138.27 138.11 137.71 136.78 136.15 135.52 134.42 134.64 134.28 133.48 133.74 133.93 134 134.93 135.94 136.79 137.03 136.75 136.02 134.55 133.57 132.83 131.68 128.93 126.12 125.83 128.01 129.17 136.26 136.9 131.17 131.06 131.35 131.57 131.51 131.43 131.15 130.82 130.79 130.94 130.95 131.2 131.25 126.87 125.36 125.36 125.37 125.37 125.37 125.37 125.37 125.37 125.37 125.38 125.38 125.38 125.39 125.39 125.39 125.4 125.4 125.4 125.4 127.01 130.45 130.22 130.2 130.07 129.46 130.27 127.21 125.43 125.43 125.43 125.44 125.44 127.82 136.57 156.07 158.42 162.39 165.11 166.76 169.08 170.65 172.25 171.91 165.69 168.64 174.57 177.63 179.35 181.29 183.74 -9999 -9999 -9999
-9999 -9999 172.33 172.4 171.99 171.27 170.25 167.65 164.71 160.43 158.04 156.2 154.5 153.09 151.69 148.99 147.82 146.99 146.23 146.16 145.36 144.82 143.8 143.46 143.29 142.06 142.43 142.46 141.82 141.7 141.01 139.68 138.22 138.04 138.2 138.25 138.27 138.28 138.27 138.18 136.83 136 135.34 135.02 134.65 133.54 133.24 133.33 133.38 133.94 135.02 136.14 137.05 137.04 136.63 135.92 134.63 133.48 132.46 130.56 128.24 125.71 126.44 128.51 130.69 136.87 135.03 130.8 130.91 131.27 131.5 131.55 131.43 131.26 130.93 131.07 130.99 130.99 131.44 130.1 125.73 125.35 125.36 125.36 125.36 125.36 125.37 125.37 125.37 125.37 125.37 125.37 125.38 125.38 125.38 125.39 125.39 125.39 125.4 125.64 129.5 130.36 130.06 130.05 129.31 129.55 129.68 125.62 125.42 125.42 125.42 125.43 126.02 131.68 147.08 160.33 160.62 167.69 171.55 174.12 176.09 177.31 178.13 177.27 174.32 176.11 178.67 181.37 183.44 185.25 187.27 -9999 -9999 -9999
-9999 -9999 171.58 171.76 171.65 170.99 169.6 166.72 163.26 158.88 156.29 153.99 152.46 150.03 148.7 146.92 146.19 145.91 144.82 145.35 144.16 143.39 142.86 143.02 142.16 140.45 140.47 140.58 140.78 141.19 140.1 138.59 138.29 138.29 138.26 138.21 138.2 138.18 138.19 137.95 136.28 135.81 135.61 134.75 134.17 133.27 133.19 133.4 133.41 133.8 135.14 136.4 137.16 137.09 136.68 135.72 134.2 133.62 131.39 129.86 126.82 125.71 127.27 127.93 132.39 136.68 132.57 130.84 130.98 131.24 131.39 131.31 131.13 130.95 131.08 131.04 131.1 131.24 131.51 128.06 125.35 125.35 125.35 125.35 125.36 125.36 125.36 125.36 125.36 125.37 125.37 125.37 125.37 125.37 125.38 125.38 125.38 125.39 125.39 127.49 130.55 130.3 130.02 129.73 128.9 129.75 127 125.41 125.41 125.41 125.41 125.5 129.73 137.5 155.42 161.23 162.55 171.93 176.3 178.18 179.99 181.23 182.12 182.32 181.93 182.24 183.64 185.24 187.19 189.64 191.78 -9999 -9999 -9999
-9999 -9999 169.03 169.59 169.59 169 167.28 164.81 160.68 157.2 154.04 152.5 149.79 147.59 146.48 145.65 145.37 144.84 145.5 144.51 143.09 142.09 141.66 141.8 140.88 140.19 140.23 140.28 139.93 140.36 139.31 138.38 138.34 138.33 138.29 138.13 138.01 137.95 137.48 136.93 136.3 135.63 135 134.64 134.02 133.52 133.3 133.22 133.48 134.53 135.5 136.52 137.16 137.21 136.72 134.94 133.86 133.01 130.39 129.16 125.8 126.19 127.84 128.78 134.44 135.87 130.88 131.06 131.02 131.03 131.31 131.1 130.82 130.9 130.81 130.9 131.12 131.36 130.79 126.29 125.34 125.34 125.34 125.35 125.35 125.35 125.35 125.36 125.36 125.36 125.36 125.36 125.36 125.37 125.37 125.37 125.38 125.38 126.03 129.82 130.64 130.28 129.86 129.17 129.17 128.9 125.47 125.4 125.4 125.41 125.41 127.64 133.88 142.94 152.85 160.95 163.89 173.03 176.6 179.08 181.61 183.4 184.67 185.46 186.25 186.93 188.2 189.53 191.22 194.1 196.54 -9999 -9999 -9999
-9999 -9999 166.14 166.44 166.25 165.16 163.33 160.58 156.69 153.56 151.33 149.87 148.44 147.43 145.88 145.01 144.1 143.02 142.88 142.77 141.97 141.34 141.29 140.9 139.99 139.95 140.01 139.95 139.14 139.25 138.89 138.5 138.35 138.23 138.2 138.27 138 137.18 136.53 135.88 135.53 135.31 135.12 134.77 134.35 133.68 133.22 133.26 133.92 135.28 135.87 136.65 137.27 137.22 136.6 134.69 133.11 131.4 129.68 127.83 125.66 126.87 127.97 130.84 135.32 134.11 130.52 131.23 131.13 131.09 131.22 130.88 130.6 130.79 130.9 131.05 131.13 131.55 129.16 125.42 125.33 125.33 125.34 125.34 125.34 125.35 125.35 125.35 125.35 125.36 125.36 125.36 125.36 125.36 125.36 125.37 125.37 125.4 128.09 130.55 130.61 130.12 129.6 129.04 129.51 126.75 125.39 125.39 125.39 125.4 126.05 133.16 145.44 145.38 147.45 157.26 164.1 170.33 174.33 177.88 180.59 183.38 185.49 187.38 189.24 191.05 192.81 194.77 196.34 198.75 201.35 -9999 -9999 -9999
-9999 -9999 163.13 163.59 163.22 161.99 159.74 157.02 154.73 150.55 149.96 147.48 146.49 145.79 144.78 144.05 143.44 143.08 142.61 142.05 141.44 141.24 141.23 140.93 139.99 140.02 139.93 139.65 138.84 138.76 138.58 139.45 139.21 138.42 138 137.7 136.82 136.25 136.03 135.94 135.64 135.28 134.93 134.67 134.27 133.79 133.47 133.36 134.34 135.53 136.17 136.89 137.46 137.33 136.29 134.37 132.64 129.97 129.16 127 125.66 127.51 128.53 132.02 135.06 132.02 130.7 131.23 131.38 131.08 130.85 130.79 130.82 130.86 130.95 131.21 131.39 131.45 127.19 125.32 125.33 125.33 125.33 125.33 125.34 125.34 125.34 125.34 125.35 125.35 125.35 125.36 125.36 125.36 125.36 125.36 125.36 126.07 129.88 130.56 130.4 129.79 129.36 129.4 128.63 125.43 125.38 125.39 125.39 125.47 130.42 145.86 157.95 156.76 151.84 150.94 162.98 164.66 166.57 172.1 176.98 181.08 184.69 187.9 191.08 193.85 196.75 199.6 202.03 204.14 206.27 -9999 -9999 -9999
-9999 -9999 159.13 159.83 159.44 155.4 151.99 151.39 150.93 149.07 148.59 147.21 146.17 145.5 145.08 144.32 143.56 143.66 143.6 142.86 142.21 141.53 141.13 140.74 139.82 139.75 139.92 140.1 140.27 139.97 139.22 138.68 138.1 137.47 137.3 137.09 136.92 136.4 136.11 135.83 135.56 135.22 134.76 134.37 133.9 133.75 133.74 133.9 134.7 135.56 136.35 137.13 137.62 137.44 135.95 133.81 131.72 129.12 128.87 126.28 125.79 128.54 129.46 133.05 134.36 130.55 130.81 131.45 131.36 130.88 130.7 130.84 130.81 130.94 131.22 131.3 131.35 130.65 125.74 125.32 125.32 125.32 125.32 125.33 125.33 125.33 125.34 125.34 125.34 125.34 125.35 125.35 125.35 125.35 125.35 125.36 125.37 128.08 130.33 130.45 130.19 129.39 129.49 129.74 126.62 125.38 125.38 125.38 125.39 127.52 142.12 163.83 166.24 163.47 161.26 154.06 162.84 159.21 159.08 166.44 173.62 178.52 183.15 187.61 192.09 195.94 199.96 204.09 207.47 210.67 212.99 -9999 -9999 -9999
-9999 -9999 156.1 156.53 154.26 151.42 151.2 150.96 150.38 147.27 146.36 146.34 145.84 145.38 145.08 144.61 143.79 143.81 143.91 143.35 142.45 141.74 141.57 141.73 141.71 141.53 141.18 140.92 140.84 140.67 139.58 138.84 138.36 137.85 137.19 136.81 137.03 136.6 136.32 135.9 135.44 134.97 134.41 133.82 133.58 133.66 133.52 134.03 134.96 135.59 136.49 137.24 137.72 137.45 135.41 133.03 130.47 128.8 128.53 125.89 126.19 128.94 129.81 133.5 133.25 130.3 131.12 131.41 131.1 130.77 130.67 130.69 130.68 130.74 131.16 131.28 131.59 128.99 125.34 125.31 125.31 125.32 125.32 125.32 125.32 125.33 125.33 125.33 125.34 125.34 125.34 125.34 125.35 125.35 125.35 125.35 125.81 129.79 130.43 130.22 130.01 129.23 129.77 128.97 125.49 125.37 125.37 125.38 125.65 132.6 159.63 171.39 171.77 169.83 167.33 162.9 166.18 165.79 164.56 165.42 171.87 177.48 181.39 187.29 192.71 197.94 203.2 208.22 212.5 217.11 220.15 -9999 -9999 -9999
-9999 -9999 153.74 153.81 151.74 151.15 151.34 151.34 150.88 146.85 144.91 145.4 145.14 144.9 144.6 144.17 144.38 143.74 143.3 143.38 143.8 144.07 143.88 143.6 142.02 141.17 141.35 141.33 141.27 141 139.72 138.9 138.42 137.99 137.56 136.8 136.44 136.56 136.23 135.97 135.27 134.8 134.17 133.62 133.54 133.82 133.52 133.99 135.01 135.64 136.75 137.64 137.78 137.29 134.49 131.55 129.63 128.84 128.13 125.67 126.6 129.13 130.72 133.44 132.52 131.06 131.3 131.29 130.88 130.77 130.69 130.62 130.74 130.89 131.08 131.3 131.56 127.22 125.31 125.31 125.31 125.31 125.31 125.32 125.32 125.32 125.32 125.33 125.33 125.33 125.33 125.34 125.34 125.34 125.35 125.35 127.2 130.3 130.15 130.2 129.38 129.43 129.88 126.81 125.36 125.37 125.37 125.37 127.3 139.78 167.4 174.57 176.18 175.51 173.17 170.76 170.76 171.53 172.87 169.45 170.87 177.02 180.89 186.14 192.36 198.64 204.83 211.16 216.64 222.11 225.48 -9999 -9999 -9999
-9999 -9999 150.91 151.01 150.44 150.77 151.1 151.41 151.15 147.44 145.01 144.9 144.69 144.6 144.73 144.93 145.53 145.67 145.51 145.54 145.12 144.98 144.64 144.24 143.13 141.41 141.48 141.39 141.06 140.46 139.36 139.12 138.86 138.11 137.49 136.45 135.87 136.09 136.07 135.71 135.15 134.55 134.13 133.61 133.38 133.65 133.74 133.86 135.01 135.66 137.05 137.88 137.89 136.81 133.36 129.84 129.09 128.63 127.78 125.6 126.38 128.55 131.46 133.07 131.11 131.07 131.26 131.23 130.8 130.69 130.66 130.59 130.7 130.88 131.11 131.36 130.73 125.75 125.31 125.31 125.31 125.31 125.31 125.31 125.31 125.32 125.32 125.32 125.32 125.33 125.33 125.33 125.33 125.34 125.34 125.4 129.12 130.13 129.96 129.95 129.19 129.85 129.28 125.53 125.36 125.36 125.36 125.36 129.34 146.41 169.18 176.03 178.42 178.68 177.79 176.18 175.42 174.71 175.81 173.93 173.19 176.85 181.28 186.66 192.55 199.78 207.23 214.47 220.93 226.75 230.39 -9999 -9999 -9999
-9999 -9999 148.13 147.94 148.07 149.42 149.48 148.88 147.9 146.37 146.18 146.22 146.37 146.48 146.6 146.59 146.39 146.07 145.98 145.99 145.87 145.87 145.56 145.24 144.72 143.88 143.33 142.76 142.19 141.64 139.35 139.37 139 138.24 137.6 136.56 135.86 135.48 135.47 135.29 135.03 134.5 134.19 133.5 133.45 133.89 133.67 133.84 134.93 135.8 137.24 138.04 137.94 135.68 131.7 128.82 128.48 127.89 127.48 125.58 126.39 128.69 132.1 132.46 130.55 131.2 130.96 130.84 130.57 130.58 130.61 130.67 130.69 130.91 131.14 131.32 128.87 125.32 125.3 125.3 125.31 125.31 125.31 125.31 125.31 125.31 125.32 125.32 125.32 125.32 125.33 125.33 125.33 125.33 125.33 126.24 130.08 130.07 129.71 129.29 129.57 130.15 127.51 125.35 125.35 125.36 125.36 125.39 131.42 151.84 170.02 176.12 178.68 179.86 180.13 179.89 179.28 177.79 180.35 177.9 179.59 181.52 184.88 189.81 195.73 203.88 211.85 220.24 228.28 234.12 237.31 -9999 -9999 -9999
-9999 -9999 148.1 148.01 147.86 147.89 147.54 147.33 147.46 147.61 147.58 147.33 147.14 146.78 146.52 146.91 146.85 147.06 147.14 147.37 147.58 147.26 146.7 146.55 145.98 145.33 144.69 144.03 143.4 142.68 139.85 139.21 138.73 138.26 137.65 136.61 135.88 135.5 135.09 134.93 134.61 134.41 134.19 133.7 133.57 134.1 133.67 134.14 135.1 136.07 137.39 138.38 137.94 134 130.19 128.6 128.16 127.85 127.1 125.56 126.67 129.65 132.49 131.89 130.69 130.95 130.52 130.56 130.55 130.62 130.48 130.36 130.43 131.11 131.13 131.27 127.05 125.3 125.3 125.3 125.3 125.3 125.3 125.31 125.31 125.31 125.31 125.32 125.32 125.32 125.32 125.32 125.33 125.33 125.33 127.97 130.22 129.81 129.4 129.04 129.82 130.18 125.99 125.35 125.35 125.35 125.35 125.66 133.64 155.06 170.52 175.06 177.53 179.53 180.97 181.87 181.89 181.23 183.37 182.12 184.17 185.82 190.08 196.43 204.12 211.81 221.83 230.16 237.58 241.76 244.64 -9999 -9999 -9999
-9999 -9999 150.14 150.1 149.81 149.24 148.94 148.73 148.48 148.29 148.23 148.25 148.3 148.56 148.64 148.68 148.92 148.71 147.81 147.28 147.52 148.46 147.73 147.62 147.12 145.94 145.42 145.13 145.16 144.3 140.55 139.05 138.66 138.25 137.65 136.79 135.98 135.56 135.16 134.68 134.5 134.45 134.3 133.96 133.79 134 133.61 134.5 135.42 136.29 137.67 138.66 138.16 133.74 129.59 128.22 128.02 128.13 126.64 125.55 127.1 130.66 132.48 131.09 130.76 130.78 130.38 130.59 130.59 130.76 130.32 130.13 130.41 131.05 131.16 130.82 125.91 125.29 125.29 125.3 125.3 125.3 125.3 125.3 125.3 125.3 125.31 125.31 125.31 125.32 125.32 125.32 125.32 125.32 125.51 129.46 129.72 129.4 128.83 129.48 130.03 129.56 125.41 125.34 125.34 125.35 125.35 126.29 137.48 159.89 168.79 170.96 173.14 176.54 180.21 182.11 183.34 184.53 184.79 188.38 189.32 193.53 200.32 203.49 209.67 222.46 234.33 240.58 243.96 248.02 252.03 -9999 -9999 -9999
-9999 -9999 152 151.53 150.95 150.34 150.18 150.12 150.24 150.22 150.3 150.36 150.05 150.12 150.65 150.68 151.3 150.86 150.08 150.64 149.4 149.06 148.53 147.98 147.78 146.56 145.44 144.91 145.15 144.76 141.49 138.93 138.49 138.2 137.82 136.84 136.17 135.69 135.34 134.88 134.35 134.29 134.15 133.96 133.93 133.71 133.76 134.63 135.42 136.46 137.84 138.26 137.24 133.57 129.14 126.79 126.39 127.97 126.1 125.54 127.94 131.66 132.33 130.65 130.66 130.46 130.39 130.62 130.65 130.73 130.14 130.2 130.66 131.23 131.2 129.15 125.35 125.29 125.29 125.29 125.29 125.29 125.3 125.3 125.3 125.3 125.3 125.3 125.31 125.31 125.31 125.31 125.32 125.32 126.48 129.92 129.48 128.85 129.08 129.95 130.22 128.51 125.33 125.33 125.34 125.34 125.34 127.32 139.88 158.12 162.59 163.85 167.67 173.62 178.07 181.01 183.1 185.12 185.4 191.85 194.9 200.43 207.69 216.94 222.64 231.93 239.82 243.68 247.11 251.03 254.55 -9999 -9999 -9999
-9999 -9999 154.02 153.32 152.66 152.46 152.31 152.55 153.14 153.09 152.87 152.37 151.94 151.69 152.58 153.19 153.25 152.64 151.62 151.99 151.74 149.69 148.92 148.01 147.96 147.21 146.31 145.13 144.06 143.24 141.21 139.01 138.37 138.22 137.93 136.82 136.22 135.7 135.31 134.97 134.59 134 134 133.99 133.96 133.65 134.13 134.9 135.74 136.67 137.7 137.32 134.27 130.2 128.49 128.15 127.66 127.18 125.66 125.68 129.12 132.28 131.91 130.54 130.66 130.35 130.5 130.64 130.66 130.38 129.99 130.45 130.93 131.16 130.93 127.05 125.28 125.28 125.28 125.28 125.29 125.29 125.29 125.29 125.29 125.3 125.3 125.3 125.3 125.3 125.31 125.31 125.31 125.31 127.93 129.76 128.88 128.88 129.62 129.93 130.27 127.88 125.33 125.33 125.33 125.33 125.34 128.59 141.57 155.45 155.75 157.07 164.03 170.5 175.41 179.09 181.59 181.07 184.32 190.23 198.69 204.93 212.48 222.71 231.71 237.62 240.67 243.34 246.2 248.69 250.64 -9999 -9999 -9999
-9999 -9999 155.39 154.46 154.24 154.53 154.89 154.89 155.67 156.29 156.36 155.66 154.6 154.47 153.4 153.2 153.28 153.06 152.27 152.17 151.97 150.71 149.29 148.03 147.68 147.03 146.67 145.69 143.02 142.11 140.44 138.74 138.28 138.06 137.63 136.87 136.09 135.49 135.14 134.76 134.41 133.78 133.95 133.97 133.81 133.48 134.07 134.77 135.96 136.88 137.15 135.84 131.1 128.88 128.19 128.84 128.67 127.54 125.55 126.52 130.2 132.53 131.39 130.7 130.75 130.51 130.62 130.55 130.34 129.96 130.16 130.87 130.96 131.16 130.35 125.71 125.28 125.28 125.28 125.28 125.28 125.28 125.28 125.29 125.29 125.29 125.29 125.3 125.3 125.3 125.3 125.3 125.3 125.41 129.3 129.07 128.57 129.23 129.52 129.58 130.3 126.95 125.32 125.32 125.33 125.33 125.34 130.13 139.65 144.3 145.21 149.53 156.34 163.29 168.16 173.07 175.71 174.43 180.24 185.91 195.02 206.69 216.64 225.84 233.86 237.1 238.45 240.73 242.46 244.17 244.83 -9999 -9999 -9999
-9999 -9999 156.89 155.82 156.2 157.58 158.43 158.01 158.17 158.74 158.85 158.72 158.01 157.53 154.8 153.15 153.29 153.13 152.45 152.7 153.07 152.64 149.46 148.04 147.46 146.76 145.83 144.65 142.75 141.38 139.94 138.61 138.04 137.58 137.18 136.71 136.04 135.25 134.9 134.53 134.08 133.55 133.78 133.94 133.59 133.48 133.93 134.81 135.94 136.62 136.6 133.21 129.57 128.35 128.26 129.6 128.28 126.95 125.51 127.83 131.35 132.49 130.79 130.66 130.74 130.67 130.58 130.31 130.02 129.98 130.5 130.9 130.93 131.18 129.16 125.3 125.27 125.27 125.28 125.28 125.28 125.28 125.28 125.28 125.28 125.28 125.29 125.29 125.29 125.29 125.3 125.3 125.3 126.32 129.34 128.35 128.8 129.16 129.27 130.05 129.97 125.75 125.32 125.32 125.32 125.32 125.68 131.54 136.59 141.89 143.93 144.77 147.2 153.63 159.18 163.99 165.86 167.32 174.13 182.51 188.45 202.72 217.1 229.17 233.99 233.33 234.03 235.63 237.36 239.69 241.05 -9999 -9999 -9999
-9999 -9999 158.43 157.83 159.32 161.16 161.73 160.89 160.35 160.74 160.93 161.28 161.2 160.85 157.02 153.21 153.3 153.17 152.98 154.53 154.14 153.52 150.31 148.31 147.62 145.57 143.66 143.58 142.63 140.18 139.13 138.49 137.85 137.25 136.39 135.52 135.91 135.5 135.39 135.29 134.57 133.39 133.49 133.63 133.37 133.67 134.06 135.29 136.13 136.55 135.44 130.84 128.77 128.11 128.25 128.18 127.78 125.82 125.98 129.34 132.1 132.04 130.48 130.66 130.77 130.66 130.25 129.94 129.85 130.2 130.85 130.59 130.85 130.98 127.71 125.27 125.27 125.27 125.27 125.27 125.28 125.28 125.28 125.28 125.28 125.28 125.28 125.28 125.29 125.29 125.29 125.29 125.29 127.46 128.34 128.72 128.78 129.3 130.07 130.27 129.28 125.34 125.31 125.31 125.32 125.32 126.25 134.23 143.06 147.22 150.91 152.76 151.55 149.52 151.45 154.79 157.06 159.6 166.17 176.46 185.14 196.89 213.97 228.03 230.29 227.77 228.07 229.35 231.99 235.16 238.08 -9999 -9999 -9999
-9999 -9999 160.63 160.41 162.35 164.07 164.26 163.44 162.81 162.72 162.73 163.63 164.1 163.72 159.5 154.29 154.01 153.89 154.3 154.84 154.26 153.76 151.46 148.26 146.75 145.22 143.41 143.43 142.81 139.98 139.24 138.64 138.01 137.25 136.13 135.19 135.41 135.43 135.33 135.11 134.3 133.19 133.37 133.62 133.83 133.85 134.39 135.67 136.44 136.17 133.15 129.38 128.48 128.01 128.05 127.91 126.73 125.51 127.55 130.46 132.46 131.27 130.49 130.67 130.64 130.21 129.86 129.95 130.16 130.55 130.73 130.53 130.89 130.87 126.49 125.26 125.26 125.27 125.27 125.27 125.27 125.27 125.27 125.27 125.27 125.28 125.28 125.28 125.28 125.28 125.28 125.29 125.34 128.11 128.53 128.7 129.54 129.93 130.06 130.41 128.22 125.31 125.31 125.31 125.31 125.31 127.16 136.97 146.85 152.76 159.01 162.01 160.91 157.75 158.08 158.58 157.78 157.69 159.52 168.36 180.52 191.42 207.25 221.03 224.76 222.84 221.89 222.33 224.69 229.63 233.46 -9999 -9999 -9999
-9999 -9999 163.09 162.93 164.02 165.31 165.93 165.32 164.98 164.9 165.08 165.55 166.04 165.65 163.21 160.1 159.41 158.52 157.49 155.47 154.33 153.89 152.22 148.08 146.75 145.18 143.48 142.93 142.15 140.57 140 139.43 138.67 137.68 136.41 135.46 135.02 134.49 134.27 133.75 133.19 133.39 133.63 134.01 133.98 134.07 134.95 136.14 136.39 135.58 131.56 128.74 128.03 127.92 127.87 127.57 125.57 126.72 129.21 131.57 132.46 130.43 130.04 130.02 129.85 129.68 129.79 130.34 130.84 130.88 130.83 130.5 131.34 130.29 125.71 125.26 125.26 125.26 125.26 125.26 125.27 125.27 125.27 125.27 125.27 125.27 125.27 125.27 125.28 125.28 125.28 125.28 125.94 128.71 128.64 129.16 129.9 129.79 130.13 130.53 127.63 125.3 125.3 125.3 125.3 125.31 128.48 141.22 151.33 158.03 163.84 167.69 168.42 165.88 168.98 169.96 168.42 163.95 162.54 163.43 172.65 184.29 196.11 206.34 212.91 215.63 212.64 211.68 214.29 220.05 223.96 -9999 -9999 -9999
-9999 -9999 165.22 165.21 165.99 166.65 167.13 167.16 166.69 166.71 167.03 167.48 167.24 166.82 165.65 163.97 162.23 160.71 158.74 156.53 154.64 153.85 152.24 149.51 147.92 146.16 144.33 142.71 141.85 141.11 140.83 139.79 139.03 138.03 136.92 136.07 135.35 135.11 134.93 134.56 133.04 133.63 133.83 133.98 133.73 134.4 135.79 136.46 135.61 134.27 131.24 128.19 127.74 127.79 127.83 125.9 125.89 128.75 129.9 132.35 131.79 129.48 129.4 129.46 129.45 129.56 129.85 130.38 130.74 130.95 130.66 130.65 131.05 129.25 125.35 125.25 125.26 125.26 125.26 125.26 125.26 125.26 125.26 125.27 125.27 125.27 125.27 125.27 125.27 125.27 125.28 125.28 126.85 128.75 129.09 129.84 129.68 129.74 130.29 130.42 127.13 125.3 125.3 125.3 125.3 125.31 130.2 143.37 153.78 161.53 167.82 172.53 174.09 174.25 175.41 178.12 178.5 172.99 167.57 166.4 167.71 179.96 183.71 188.42 193.76 197.41 198.9 201.36 204.63 214.63 223.31 -9999 -9999 -9999
-9999 -9999 167.4 167.2 167.55 167.83 168.35 168.67 168.76 168.71 169.16 169.37 168.76 167.66 166.4 164.94 163.4 161.6 159.69 157.91 156.47 154.53 152.39 150.47 149.43 146.94 145.03 143.81 142.65 141.66 140.53 139.5 138.88 138.2 137.27 136.11 135.5 134.88 134.75 134.29 133 133.64 133.97 133.91 133.91 134.92 136.09 136.32 134.63 130.58 128.56 127.75 127.67 127.63 126.11 125.63 128.3 129.37 130.96 132.52 130.59 129.25 129.54 129.6 129.62 129.77 130.03 130.28 130.55 130.45 130.07 130.84 130.97 127.95 125.26 125.25 125.25 125.25 125.25 125.25 125.26 125.26 125.26 125.26 125.26 125.26 125.26 125.27 125.27 125.27 125.27 125.28 127.17 128.93 129.82 129.66 129.51 129.87 130.33 130.33 126.49 125.29 125.29 125.29 125.29 125.4 132.29 150.09 154.29 161.48 168.72 175.16 178.34 179.25 179.76 181.76 183.38 181.35 175.47 171.31 170.49 177.36 182.45 179.99 182.84 186.62 191.12 196.9 208.7 224.21 229.62 -9999 -9999 -9999
-9999 -9999 169.42 169.49 169.22 169.1 169.52 170.19 170.63 170.77 170.97 170.89 170.33 169.01 167.19 165.04 163.31 161.32 159.6 158.09 156.8 154.99 152.85 151.02 150.12 147.55 145.25 144.07 142.52 140.41 139.84 139.94 139.93 139.35 137.99 135.55 134.75 134.29 133.87 133.6 133.05 133.81 134.02 133.84 134.13 135.4 136.26 135.44 132.45 129.07 128.43 128.44 127.33 125.94 125.57 127.89 129.37 129.61 132.01 132.19 129.83 129.19 129.23 129.51 129.79 130.02 130.15 130.15 129.96 129.85 130.08 130.96 130.81 126.77 125.24 125.24 125.25 125.25 125.25 125.25 125.25 125.25 125.25 125.25 125.25 125.26 125.26 125.26 125.26 125.26 125.41 125.59 126.63 129.51 129.66 129.38 129.48 129.98 130.24 129.89 125.73 125.29 125.29 125.29 125.29 125.68 134.99 156.09 160.35 161.83 168.03 173.88 179.44 182.96 184.11 185.15 186.66 186.41 184.27 176.74 175.38 178.36 185.67 183.55 187.31 191.94 197.66 206.74 219.92 229.48 -9999 -9999 -9999 -9999
-9999 -9999 171.6 171.75 171.29 170.76 171.01 172.1 172.57 172.93 172.93 172.24 171.43 169.74 167.83 165.58 163.68 161.14 159.29 157.8 156.62 155.04 153.45 151.86 150.58 148.47 145.71 143.48 140.51 139.72 139.9 139.95 139.96 139.27 138.02 135.57 134.53 134.04 133.61 133.1 133.05 133.95 134.05 134.09 134.77 135.71 135.85 134.66 130.53 128.14 128.29 127.15 125.62 125.84 127.88 129.03 129.22 130.35 132.48 131.4 129.8 129.23 129.04 129.37 129.49 129.42 129.17 129.22 129.63 129.78 130.15 130.94 130.1 125.81 125.24 125.24 125.24 125.24 125.24 125.25 125.25 125.25 125.25 125.25 125.25 125.25 125.25 125.25 125.25 125.25 125.88 126.21 126.12 129.69 129.4 129.3 129.48 129.96 130.1 128.79 125.3 125.28 125.28 125.28 125.28 126.3 137.37 158.82 164.29 167.44 170.36 175.04 179.99 184.65 187.14 188.82 190.3 190.79 189.49 184.58 182.26 186.79 188.9 192.94 197.08 201.82 208.09 216.59 224.48 229.72 -9999 -9999 -9999 -9999
-9999 -9999 173.9 174.27 174.1 173.05 173.24 174.06 174.49 175.02 174.63 173.57 172.45 170.33 168.54 166.44 164.22 161.65 159.98 158.79 157.3 155.97 154.26 152.68 150.86 149.05 145.79 141.87 139.84 139.49 139.61 139.77 139.53 138.75 137.22 135.45 134.27 133.31 133 132.58 133.32 134.11 134.25 134.54 135.1 135.88 135.12 132.63 128.55 127.25 126.5 125.46 126.2 128.69 128.99 128.95 129.43 131.4 132.48 130.17 129.2 128.99 128.84 128.81 128.86 129.13 129.25 129.8 130.38 130.62 130.81 131.01 128.89 125.29 125.24 125.24 125.24 125.24 125.24 125.24 125.24 125.24 125.25 125.25 125.25 125.25 125.25 125.25 125.25 125.25 126.43 126.64 126.48 129.75 129.41 129.29 129.77 130 130.27 127.74 125.28 125.28 125.28 125.28 125.28 127.48 140.74 161.53 166.92 172.21 174.93 178.17 183.01 186.93 189.66 191.91 193.72 195 195.5 194.42 192.01 195.45 192.96 197.5 202.87 208.26 214.49 219.81 224.68 228.79 -9999 -9999 -9999 -9999
-9999 -9999 176.34 177.1 176.89 175.51 175.67 176.18 177.28 177.57 176.42 174.65 173.25 170.97 169.75 167.4 165.07 163.01 161.48 159.89 158.3 156.73 154.74 152.62 150.32 149.01 145.54 141.55 139.93 139.91 139.48 138.92 138.13 137.45 136.39 134.57 133.18 132.55 133.15 132.7 133.26 133.67 134.45 134.92 135.38 135.62 133.95 129.35 127.87 126.3 125.42 126.37 129.42 129.11 128.7 129.51 129.98 132.18 131.89 128.04 128.13 129.05 129.51 129.73 130.03 130.48 130.7 131.08 131.44 131.51 131.47 131.09 127.4 125.23 125.23 125.23 125.23 125.23 125.24 125.24 125.24 125.24 125.24 125.24 125.24 125.25 125.25 125.25 125.25 125.46 127.53 126.25 127.58 129.77 129.41 129.41 129.81 130.02 130.39 126.77 125.27 125.27 125.27 125.27 125.27 128.86 144.06 162.51 169.29 175.8 179.09 181.29 185.19 189.36 192.31 194.43 196.6 198.33 199.37 199.8 199.09 199.29 196.19 198.25 205.16 210.56 216.12 221.27 224.92 227.32 -9999 -9999 -9999 -9999
-9999 -9999 178.5 179.55 179.55 178.41 178.59 178.62 179.86 179.76 178.13 175.86 174.75 172.71 171.09 168.38 166.36 164.72 162.78 160.74 158.94 156.64 154.21 151.77 149.67 148.35 145.54 143.36 141.82 140.71 139.99 139.8 138.31 137.47 135.88 133.91 132.87 132.44 133.12 132.67 132.83 133.32 134.12 134.83 135.07 134.67 133.89 130.29 126.8 125.43 125.96 128.94 129.51 128.71 128.92 129.72 130.65 132.47 130.35 126.77 126.55 126.78 127.35 128.35 129.88 131.15 131.46 131.4 131.52 131.44 131.51 130.89 126.24 125.23 125.23 125.23 125.23 125.23 125.23 125.23 125.23 125.23 125.23 125.24 125.24 125.24 125.24 125.24 125.24 126.78 128.77 125.53 129.15 129.6 129.31 129.31 129.64 130.1 130.36 125.95 125.27 125.27 125.27 125.27 125.28 130.62 146.4 159.44 167.41 174.63 179.79 183.68 187.9 191.75 194.71 197.15 199.98 202.2 203.33 203.88 203.29 202.04 198.66 198.67 206.05 211.08 216.8 221.79 224.59 226.37 -9999 -9999 -9999 -9999
-9999 -9999 180.37 181.42 181.52 180.93 181.06 180.97 181.45 180.77 179.03 177.04 175.64 173.58 171.54 169.06 166.97 165.42 163.36 161.18 158.38 155.7 152.52 150.24 148.82 147.5 144.96 143.69 142.07 140.46 140.15 140.11 138.64 137.08 135.68 133.63 132.54 132.3 132.2 132.71 132.56 133.25 134.76 134.88 134.82 134.01 133.4 129.84 125.6 125.6 128.02 129.73 129.28 128.4 129.15 129.81 131.73 132.34 128.2 125.91 125.58 125.96 125.59 125.53 125.86 127 128.69 130.17 131.21 131.32 131.29 130.11 125.54 125.22 125.22 125.23 125.23 125.23 125.23 125.23 125.23 125.23 125.23 125.23 125.23 125.23 125.23 125.24 125.25 128.35 127.29 126.54 129.8 129.47 129.19 129.2 129.79 130.21 129.77 125.38 125.26 125.26 125.26 125.26 125.48 133.41 155.35 161.77 165.12 172.8 179.48 186.08 191.51 195.18 198.47 201.84 205.58 208.64 210.48 210.94 208.92 205.4 201.69 198.91 206.08 211.47 217.05 221.16 223.8 224.95 -9999 -9999 -9999 -9999
-9999 -9999 181.53 182.06 181.89 181.71 181.76 182.18 182.35 181.22 180.15 177.8 175.42 173.44 171.83 169.04 166.93 165.08 163.21 160.36 156.55 154.06 151.44 149.46 148.93 146.98 143.16 141.65 140.76 140.13 140.08 140.09 138.7 136.27 134.93 132.94 132.04 131.82 131.75 132.37 132.64 134.2 134.97 134.79 134.28 133.51 132.34 126.84 125.37 126.91 128.95 129.77 128.68 128.3 129.36 130.24 132.41 131.46 126.69 125.57 125.47 125.56 125.47 125.47 125.48 125.76 126.62 127.83 130.92 131.16 131.23 129.11 125.29 125.22 125.22 125.22 125.22 125.22 125.22 125.22 125.23 125.23 125.23 125.23 125.23 125.23 125.23 125.23 125.41 129.45 126.14 128.12 129.36 129.32 129.08 129.17 129.92 130.36 129.09 125.26 125.26 125.25 125.25 125.25 126.29 138.88 162.04 168.93 172.22 175.6 181.7 188.45 194.52 199.72 203.92 208.03 212.01 215.09 216.13 216.03 213.76 208.07 201.89 198.83 204.98 210.76 216.2 219.86 221.39 221.88 -9999 -9999 -9999 -9999
-9999 181.81 181.93 181.69 181.51 181.7 182.35 182.72 182.58 181.47 180.63 178.24 175.4 173.56 171.17 168.32 166.24 164.13 162.23 158.24 154.43 152.53 151.56 149.55 148.11 145.75 141.46 141.3 140.55 139.89 139.76 138.48 136.83 135.71 134.33 132.54 131.98 131.81 131.61 132.61 133.87 134.81 134.77 134.31 133.2 131.07 129.74 125.66 125.59 128.14 129.29 129.37 127.88 128.41 129.78 131.08 132.53 129.67 126.01 125.48 125.47 125.64 125.47 125.47 125.47 125.51 127.02 128.79 131.18 131.24 130.96 128.07 125.22 125.21 125.21 125.21 125.21 125.22 125.22 125.22 125.22 125.22 125.22 125.22 125.23 125.23 125.23 125.23 126.3 129.95 125.81 128.67 129 129.29 129.04 129.02 130.03 130.44 128.4 125.25 125.25 125.25 125.25 125.25 127.73 144.13 166.12 173.33 178.63 183.21 187.7 193.81 199.4 204.63 209.35 213.53 216.56 218.2 219.25 220.23 217.27 208.47 200.33 197.78 202.16 208.85 214.06 216.8 216.76 215.73 -9999 -9999 -9999 -9999
-9999 181.6 181.66 181.48 181.47 181.62 182.52 183.02 182.31 181.16 180.4 178.45 175.89 173.61 170.76 167.42 164.92 162.67 159.78 156.4 153.37 152.06 150.66 148.87 147.02 144.9 142.5 141.7 140.94 140.02 139.39 138.28 137.12 135.85 134.02 132.45 131.94 131.75 131.7 132.74 133.6 133.87 133.58 133.12 131.52 128.97 128.09 125.37 126.54 128.35 129.37 128.86 127.62 129.2 129.88 132 132.08 127.59 125.69 125.47 125.47 125.72 125.48 125.47 125.47 125.75 127.42 129.69 131.06 131.25 130.61 127.19 125.21 125.21 125.21 125.21 125.21 125.21 125.21 125.21 125.21 125.22 125.22 125.22 125.22 125.22 125.22 125.22 127.78 129.7 125.69 128.89 129.05 129.29 128.97 129.03 130.12 130.32 127.45 125.24 125.25 125.24 125.24 125.25 129.59 149.5 166.03 175.23 183.45 189.29 193.9 200.2 206.11 210.68 214.5 217.79 219.73 221.03 222.66 223.95 219.79 207.77 198.55 195.88 198.03 203.96 207.74 208.91 209.33 208.99 -9999 -9999 -9999 -9999
-9999 181.36 181.45 181.52 181.6 181.81 182.76 183.24 181.85 180.94 179.67 178.09 175.99 173.87 170.23 166.36 163.46 160.18 157.36 155.55 153.24 151.68 149.76 147.72 145.81 144.36 143.14 141.72 141.26 140.2 138.82 137.62 136.45 134.88 133.44 132.58 132.07 131.84 131.65 132.42 132.53 132.79 132.91 132.09 130.5 128.93 127.63 125.35 126.86 128.49 129.23 128.32 128.14 129.65 130.38 132.44 129.89 126.2 125.51 125.47 125.47 125.96 125.5 125.47 125.47 126.45 127.76 130.01 130.9 130.9 130.28 126.29 125.21 125.21 125.21 125.21 125.21 125.21 125.21 125.21 125.21 125.21 125.21 125.21 125.21 125.22 125.22 125.23 128.71 129.4 125.49 128.95 129.13 129.25 128.92 129.06 129.97 130 126.48 125.24 125.24 125.24 125.24 125.48 133.04 156.94 169.33 175.25 184.95 194.57 201.71 207.55 213.31 217.8 220.6 223.16 225.47 227.4 227.61 225.78 218.46 207.94 197.65 193.55 193.54 198.18 200.96 202.27 202.35 201.27 -9999 -9999 -9999 -9999
-9999 181.32 181.4 181.67 181.75 181.96 183.07 183.28 181.63 180.72 179.41 177.42 175.22 172.95 168.37 164.45 161.09 158.31 156.6 154.54 152.29 150.74 149.01 147.14 145.35 144.2 142.56 140.9 140.49 139.33 137.63 136.54 135.46 134.4 133.39 132.77 132.09 131.63 130.84 130.85 130.28 130.3 132.1 129.95 128.49 127.74 127.04 125.46 126.5 128.47 128.9 127.9 128.99 129.53 131.65 132.42 127.6 125.91 125.47 125.47 125.5 126.26 125.49 125.47 125.55 127.28 127.96 130.37 131.1 130.97 129.58 125.69 125.2 125.2 125.2 125.2 125.2 125.21 125.21 125.21 125.21 125.21 125.21 125.21 125.21 125.21 125.21 125.53 129.65 129.63 125.51 128.71 129.16 129.23 128.85 129.14 130.09 129.5 125.55 125.23 125.23 125.23 125.23 126.9 138.16 163.56 181.39 186.91 191.74 201.91 210.25 216.11 221.76 226.58 229.76 231.85 232.98 232.07 228.51 221.65 212.8 204.76 195.61 190.4 189.42 193.46 195.79 196.43 195.81 193.9 -9999 -9999 -9999 -9999
-9999 181.29 181.38 181.72 181.95 182.06 182.83 182.84 181.69 180.54 178.77 176.28 174.26 170.46 165.66 162.73 160.06 157.72 156.48 154.06 152.11 150.09 148.28 146.87 145.5 144.23 142.7 141.35 140.15 138.75 137.55 136.61 135.55 134.23 133.42 132.87 132.27 132.46 132.39 131.49 131.37 131.3 131.3 128.43 128.65 128.38 127.73 125.66 125.95 128.43 128.24 128.12 129.34 130.11 132.66 131.38 126.42 125.71 125.47 125.47 125.57 126.85 125.67 125.47 126.05 127.86 128.55 130.73 130.97 130.76 128.48 125.24 125.2 125.2 125.2 125.2 125.2 125.2 125.2 125.2 125.2 125.2 125.2 125.2 125.21 125.21 125.21 126.62 129.93 129.95 126.18 127.72 129.21 129.2 128.65 129.14 129.87 127.99 125.23 125.23 125.23 125.23 125.25 129.81 144.17 169.67 188.71 198.63 205.89 213.68 221.37 227.3 231.38 234.02 235 234.87 233.29 230.68 225.87 218.7 212.02 204.88 193.56 186.82 184.09 188.57 191.22 189.94 186.85 184.85 -9999 -9999 -9999 -9999
-9999 181.32 181.41 181.64 181.95 182.12 182.23 181.99 180.88 179.33 177.36 175.01 171.91 167.94 164.51 161.74 159.13 157.22 155.61 153.66 151.98 150.09 148.4 147.09 146.13 144.77 143.21 141.8 140.27 138.63 137.44 136.36 135.2 134.13 133.42 132.93 132.48 132.91 133.26 133.35 132.97 132.58 129.91 128.72 129 128.31 127.68 125.38 126.19 128.24 128.01 128.9 129.78 131.89 133.15 129.24 126.06 125.5 125.47 125.47 125.53 126.22 126.06 125.92 126.81 127.72 129.46 130.83 130.92 130.56 127.53 125.19 125.19 125.19 125.19 125.2 125.2 125.2 125.2 125.2 125.2 125.2 125.2 125.2 125.2 125.2 125.2 127.97 129.77 129.84 127.83 126.14 129.2 129 128.5 129.13 129.74 126.47 125.22 125.22 125.22 125.22 125.98 133.1 151.92 178.23 195.22 209.51 220.36 228.01 232.97 235.45 236.7 236.9 236.83 235.17 231.73 226.77 220.47 214.08 207.7 201.1 189.53 182.28 177.88 182.13 183.73 181.23 179.33 178.8 -9999 -9999 -9999 -9999
-9999 181.24 181.28 181.46 181.83 181.85 181.42 180.97 179.64 177.72 175.68 173.09 170.13 166.84 163.7 160.85 158.64 156.52 154.9 153.44 151.73 150.07 148.31 147.05 145.95 144.62 143.14 141.91 140.49 138.81 137.54 136.49 135.44 134.34 133.63 133.06 132.73 132.91 133.12 133.33 133 132.33 129 128.81 128.91 128.3 127.77 125.37 126.11 128.04 128.37 129.4 130.91 133.68 133.25 127.11 125.54 125.47 125.47 125.47 125.47 125.47 125.5 126.18 127.18 128.06 129.73 131.43 130.97 130.16 126.4 125.19 125.19 125.19 125.19 125.19 125.19 125.19 125.19 125.19 125.19 125.19 125.19 125.2 125.2 125.2 125.36 129.51 129.74 129.54 129.39 125.61 128.02 129.01 128.51 129.09 129.24 125.38 125.22 125.22 125.21 125.21 128.33 137.75 160.54 187.52 203.04 218.47 232.4 236.64 238.17 239.22 239.23 237.8 233.81 228 223.6 217.91 211.27 205.65 200.39 194.39 185.67 178.63 172.74 176.01 175.62 174.3 173.6 173.4 -9999 -9999 -9999 -9999
-9999 181.43 181.46 181.72 181.97 181.86 181.17 179.95 178.08 175.73 173.55 171.3 168.66 165.69 162.83 160.39 158.79 156.57 154.54 153.2 151.59 149.89 148.09 146.65 145.66 144.17 142.6 141.27 140.13 138.71 137.49 136.3 135.78 135.28 134.87 134.11 132.98 132.71 133.02 133.16 132.75 132.09 128.61 128.84 128.85 128.18 127.6 125.35 126.1 128.09 128.77 129.85 133.08 134.68 132.29 125.93 125.47 125.47 125.47 125.47 125.47 125.47 125.47 125.66 126.31 127.82 129.93 131.58 130.75 129.36 125.68 125.18 125.18 125.18 125.18 125.19 125.19 125.19 125.19 125.19 125.19 125.19 125.19 125.19 125.19 125.19 126.03 130.16 129.61 129.23 129.88 127.84 125.85 128.76 128.53 129.13 127.78 125.21 125.21 125.21 125.21 125.35 131.2 145.46 171.49 199.71 217.99 229.04 238.01 239.9 239.96 239.61 235.37 228.99 222.6 218.74 215.32 210.68 204.5 198.3 193.43 188.02 182.33 175.39 168.89 170.53 170.3 169.51 168.85 168.43 -9999 -9999 -9999 -9999
-9999 -9999 -9999 -9999 -9999 -9999 -9999 -9999 -9999 -9999 -9999 -9999 -9999 -9999 -9999 -9999 -9999 -9999 -9999 152.78 151.86 150.1 148.11 146.32 144.99 143.65 142.04 140.85 139.72 138.7 137.55 136.81 135.89 134.98 134.53 134.68 134.64 132.77 133.37 133.16 132.53 131.17 128.25 128.8 128.83 128.1 127.52 125.26 126.12 128.34 129.2 131.37 135.22 135.52 130.06 125.57 125.47 125.47 125.47 125.47 125.47 125.47 125.47 125.47 125.75 127.14 129.21 131.49 131.19 128.66 125.3 125.18 125.18 125.18 125.18 125.18 125.18 125.18 125.18 125.18 125.18 125.19 125.19 125.19 125.19 125.19 127.2 130.13 129.36 128.97 129.54 129.61 125.89 127.79 128.55 129.18 126.28 125.2 125.21 125.2 125.2 127.06 136.14 157.57 184.77 212.72 232.35 240.39 240.75 240.86 237.27 229.62 222.43 217.24 214.16 212.48 209.9 205.2 199.43 193.34 187.86 183.29 179.34 172.87 165.96 166.94 166.85 166.19 164.99 164.21 -9999 -9999 -9999 -9999
-9999 -9999 -9999 -9999 -9999 -9999 -9999 -9999 -9999 -9999 -9999 -9999 -9999 -9999 -9999 -9999 -9999 -9999 -9999 -9999 -9999 -9999 -9999 -9999 -9999 -9999 -9999 -9999 -9999 -9999 -9999 -9999 -9999 -9999 -9999 -9999 -9999 -9999 -9999 -9999 -9999 -9999 -9999 -9999 -9999 -9999 -9999 -9999 -9999 -9999 -9999 -9999 -9999 -9999 -9999 -9999 -9999 -9999 -9999 -9999 -9999 -9999 -9999 -9999 -9999 -9999 130.84 131.67 131.2 128.2 125.18 125.18 125.18 125.18 125.18 125.18 125.18 125.18 125.18 125.18 125.18 125.18 125.18 125.18 125.19 125.19 128.35 130.01 129.31 128.9 129.23 129.72 126.98 126.93 128.65 128.49 125.32 125.2 125.2 125.2 125.23 130 142.95 168.7 198.56 223.19 239.01 241.21 240.11 234.01 225.02 217.36 212.72 209.93 208.33 207.27 204.61 200.35 194.97 189.24 183.82 179.57 176.53 171.97 163.85 164.62 164.55 163.73 162.08 160.68 -9999 -9999 -9999 -9999
-9999 -9999 -9999 -9999 -9999 -9999 -9999 -9999 -9999 -9999 -9999 -9999 -9999 -9999 -9999 -9999 -9999 -9999 -9999 -9999 -9999 -9999 -9999 -9999 -9999 -9999 -9999 -9999 -9999 -9999 -9999 -9999 -9999 -9999 -9999 -9999 -9999 -9999 -9999 -9999 -9999 -9999 -9999 -9999 -9999 -9999 -9999 -9999 -9999 -9999 -9999 -9999 -9999 -9999 -9999 -9999 -9999 -9999 -9999 -9999 -9999 -9999 -9999 -9999 -9999 -9999 -9999 -9999 -9999 -9999 -9999 -9999 -9999 -9999 -9999 -9999 -9999 -9999 -9999 -9999 -9999 -9999 -9999 -9999 -9999 -9999 -9999 -9999 -9999 -9999 -9999 -9999 -9999 -9999 -9999 -9999 -9999 -9999 -9999 -9999 -9999 -9999 -9999 -9999 -9999 -9999 -9999 -9999 -9999 -9999 -9999 -9999 -9999 -9999 204.65 203.29 200.69 197.13 192.24 186.59 181.15 177.42 174.2 170.15 162.37 163.14 163.24 162.17 160.51 159.14 -9999 -9999 -9999 -9999
-9999 -9999 -9999 -9999 -9999 -9999 -9999 -9999 -9999 -9999 -9999 -9999 -9999 -9999 -9999 -9999 -9999 -9999 -9999 -9999 -9999 -9999 -9999 -9999 -9999 -9999 -9999 -9999 -9999 -9999 -9999 -9999 -9999 -9999 -9999 -9999 -9999 -9999 -9999 -9999 -9999 -9999 -9999 -9999 -9999 -9999 -9999 -9999 -9999 -9999 -9999 -9999 -9999 -9999 -9999 -9999 -9999 -9999 -9999 -9999 -9999 -9999 -9999 -9999 -9999 -9999 -9999 -9999 -9999 -9999 -9999 -9999 -9999 -9999 -9999 -9999 -9999 -9999 -9999 -9999 -9999 -9999 -9999 -9999 -9999 -9999 -9999 -9999 -9999 -9999 -9999 -9999 -9999 -9999 -9999 -9999 -9999 -9999 -9999 -9999 -9999 -9999 -9999 -9999 -9999 -9999 -9999 -9999 -9999 -9999 -9999 -9999 -9999 -9999 -9999 -9999 -9999 -9999 -9999 -9999 -9999 -9999 -9999 -9999 -9999 -9999 -9999 -9999 -9999 -9999 -9999 -9999 -9999 -9999
