NCOLS 138
NROWS 101
XLLCORNER 341179.518085
YLLCORNER 4516769.65873
CELLSIZE 30 
NODATA_value -9999 
-9999.000000000000000 -9999 -9999 -9999 -9999 -9999 -9999 -9999 -9999 -9999 -9999 -9999 -9999 -9999 -9999 -9999 -9999 -9999 -9999 -9999 -9999 -9999 -9999 -9999 -9999 -9999 -9999 -9999 -9999 -9999 -9999 -9999 -9999 -9999 -9999 -9999 -9999 -9999 -9999 -9999 -9999 -9999 -9999 -9999 -9999 -9999 -9999 -9999 -9999 -9999 -9999 -9999 -9999 -9999 -9999 -9999 -9999 -9999 -9999 -9999 -9999 -9999 -9999 -9999 -9999 -9999 -9999 -9999 -9999 -9999 -9999 -9999 -9999 -9999 -9999 -9999 -9999 -9999 -9999 -9999 -9999 -9999 -9999 -9999 -9999 -9999 -9999 -9999 -9999 -9999 -9999 -9999 -9999 -9999 -9999 -9999 -9999 -9999 -9999 -9999 -9999 -9999 -9999 -9999 -9999 -9999 -9999 -9999 -9999 -9999 -9999 -9999 -9999 -9999 -9999 -9999 -9999 -9999 -9999 -9999 -9999 -9999 -9999 -9999 -9999 -9999 -9999 -9999 -9999 -9999 -9999 -9999 -9999 -9999 -9999 -9999 -9999 -9999
-9999 -9999 -9999 190.52 187.44 183.68 180.15 177.53 174.71 171.18 166.65 163.82 -9999 -9999 -9999 -9999 -9999 -9999 -9999 -9999 -9999 -9999 -9999 -9999 -9999 -9999 -9999 -9999 -9999 -9999 -9999 -9999 -9999 -9999 -9999 -9999 -9999 -9999 -9999 -9999 -9999 -9999 -9999 -9999 -9999 -9999 -9999 -9999 -9999 -9999 -9999 -9999 -9999 -9999 -9999 -9999 -9999 -9999 -9999 -9999 -9999 -9999 -9999 -9999 -9999 -9999 -9999 -9999 -9999 -9999 -9999 -9999 -9999 -9999 -9999 -9999 -9999 -9999 -9999 -9999 -9999 -9999 -9999 -9999 -9999 -9999 -9999 -9999 -9999 -9999 -9999 -9999 -9999 -9999 -9999 -9999 -9999 -9999 -9999 -9999 -9999 -9999 -9999 -9999 -9999 -9999 -9999 -9999 -9999 -9999 -9999 -9999 -9999 -9999 -9999 -9999 -9999 -9999 -9999 -9999 -9999 -9999 -9999 -9999 -9999 -9999 -9999 -9999 -9999 -9999 -9999 -9999 -9999 -9999 -9999 -9999 -9999 -9999
-9999 -9999 -9999 192.38 187.74 182.41 177.86 175.25 172.86 169.67 166.23 163.59 160.69 158.48 156.73 155.17 153.58 152.25 151.06 149.91 149.05 147.81 146.75 145.93 145.05 144.46 144.03 142.36 142.07 141.91 141.91 142.04 142.36 141.55 140.62 139.39 139.13 138.29 138.05 137.54 136.94 136.53 135.34 130.25 129.28 128.95 130.92 131.31 131.35 131.3 131.15 131.19 131.29 131.37 131.34 130.91 131.05 131.01 130.55 -9999 -9999 -9999 -9999 -9999 -9999 -9999 -9999 -9999 -9999 -9999 -9999 -9999 -9999 -9999 -9999 -9999 -9999 -9999 -9999 -9999 -9999 -9999 -9999 -9999 -9999 -9999 -9999 -9999 -9999 -9999 -9999 -9999 -9999 -9999 -9999 -9999 -9999 -9999 -9999 -9999 -9999 -9999 -9999 -9999 -9999 -9999 -9999 -9999 -9999 -9999 -9999 -9999 -9999 -9999 -9999 -9999 -9999 -9999 -9999 -9999 -9999 -9999 -9999 -9999 -9999 -9999 -9999 -9999 -9999 -9999 -9999 -9999 -9999 -9999 -9999 -9999 -9999 -9999
-9999 -9999 -9999 197.2 191.46 185.54 179.48 175.47 172.54 169.41 166.28 163.6 161.67 160.07 158.29 156.61 155.2 153.33 152.33 151.47 150.77 149.67 148.57 147.41 146.62 145.44 144.03 143.21 143.62 143.2 143.3 143.28 143.46 142.88 142.09 140.42 139.49 138.94 138.11 137.86 137.41 137.08 135.97 130.91 129.18 128.86 130.52 131.24 131.21 131.19 131.22 131.18 131.17 131.07 130.65 130.18 130.37 130.01 129.45 129.58 129.85 128.92 128.9 128.61 128.08 131.91 133.35 133.11 133.36 134.21 134.66 132.9 129.9 129.66 129.76 129.61 129.2 128.81 129.03 127.65 128.35 131.56 131.03 130.76 130.65 130.86 131.28 132.3 132.72 131.84 131.09 130.52 130.36 131.7 132.4 128.83 129.56 130.13 131.19 130.47 131.05 131.06 130.83 126.23 126.03 126.03 -9999 -9999 -9999 -9999 -9999 -9999 -9999 -9999 -9999 -9999 -9999 -9999 -9999 -9999 -9999 -9999 -9999 -9999 -9999 -9999 -9999 -9999 -9999 -9999 -9999 -9999 -9999 -9999 -9999 -9999 -9999 -9999
-9999 -9999 -9999 198.57 194.58 190.76 187.15 182.62 178.82 174.72 169.51 165.48 163.41 161.95 160.48 158.85 157.52 155.54 154.72 153.83 152.86 152.08 150.81 149.27 148.23 146.07 144.26 144.43 146.44 146.88 146.83 145.74 144.22 143.79 143.34 141.87 139.96 139.3 138.4 138.02 137.92 137.74 137.51 135.36 129.62 128.71 129.91 130.75 130.84 131.04 131.06 130.93 130.83 130.64 130.46 129.99 130.25 130.26 129.26 129.91 129.58 128.91 128.53 128.29 130.97 132.59 133 132.81 132.79 133.38 133.38 131.52 131.62 130.69 130 129.57 129.91 128.82 128.66 128.55 127.44 130.14 130.92 130.7 130.55 130.44 130.84 132.26 132.28 131.22 130.8 130.1 129.87 131.65 132.37 128.97 129.63 131.06 130.53 130.68 131.12 131.27 129.09 126.05 126.03 126.03 126.03 126.03 126.03 126.03 126.03 126.04 126.04 126.04 126.04 126.06 129.56 131.18 130.82 129.91 129.54 127.86 125.94 125.93 125.94 125.94 125.95 125.95 125.96 125.97 125.98 125.98 125.98 126.92 132.17 132.72 -9999 -9999
-9999 -9999 -9999 194.39 192.12 190.51 190.01 188.74 185.96 182.15 175.62 169.63 167.42 165.69 164.17 162.38 160.57 158.86 157.71 156.35 155.46 154.6 153.74 152.83 150.81 147.22 144.89 146.43 151.6 152.85 152.13 150.24 147.97 145.37 144.73 143.25 141.29 139.77 139.01 138.52 138.21 137.8 137.66 137.15 132.92 128.56 129.13 130.34 130.76 130.7 130.66 130.56 130.3 129.91 129.72 129.33 129.11 128.73 128.41 128.29 128.21 128.4 129.32 131.92 132.79 132.52 133.17 132.41 132.57 132.79 131.15 132.18 132.97 133.33 130.45 129.56 132.85 131.78 129.48 129.05 127.75 128.76 130.82 130.59 130.6 130.42 130.28 131.11 131.22 130.79 130.12 129.64 129.7 131.69 132.29 129.16 129.61 131.74 130.16 130.93 131.13 130.81 126.66 126.05 126.03 126.03 126.03 126.03 126.03 126.03 126.03 126.03 126.03 126.03 126.04 126.46 130.67 130.92 130.17 129.73 128.24 126.06 125.92 125.93 125.93 125.94 125.94 125.95 125.95 125.96 125.97 125.98 126 129.49 132.53 132.31 -9999 -9999
-9999 -9999 -9999 189.56 188.7 187.81 186.86 185.83 184.72 182.63 179.67 175.48 174.64 173.24 171.78 170.21 168.28 166.13 163.97 161.75 160.48 159.63 159.49 159.66 157.64 150.48 145.83 148.59 158.31 161.34 160.25 156.89 152.9 149.15 146.77 145.28 142.75 141.29 139.63 138.55 138.35 138.16 137.54 137.05 136.6 130.51 128.49 129.36 129.91 130.03 129.75 129.28 128.97 128.58 128.36 128.48 129.08 129.99 131.9 135.03 137.76 139.23 138.95 137.7 137.09 135 134.28 132.11 131.59 130.96 130.73 132.77 132.99 132.13 129.63 130.35 134.16 133.92 133.23 130.68 128.05 128.04 130.74 130.55 130.64 130.68 130.23 130.43 130.77 130.34 129.85 129.52 129.76 131.81 132.15 129.21 130.36 131.11 130.44 130.84 130.81 127.95 126.73 126.21 126.02 126.02 126.02 126.02 126.03 126.03 126.03 126.03 126.03 126.03 126.03 127.91 130.86 130.48 129.8 128.27 126.1 125.9 125.92 125.93 125.93 125.93 125.94 125.94 125.95 125.95 125.96 126.21 127.36 132.01 132.69 132.39 -9999 -9999
-9999 -9999 -9999 186.77 185.95 185.41 184.84 184.06 182.72 181.42 179.84 178.8 177.84 176.84 175.67 174.23 172.51 170.42 168.61 166.9 165.8 165.28 165.08 165.07 163.84 154.8 146.71 150.24 159.03 163.35 164.06 162.85 159.13 154.67 150.2 147.27 144.39 142.68 140.62 138.89 138.56 138.47 138.21 137.36 137.09 135.85 130.25 128.63 128.52 128.62 129.16 130.06 131.29 133.28 135.88 138.21 140.11 141.53 142.43 142.81 142.8 142.63 142.15 141.8 140.82 139.54 136.97 134.14 132.21 131.36 131.83 133.01 132.34 129.91 129.89 132.98 134.09 133.78 133.08 131.41 128.06 127.73 130.74 130.54 130.65 130.77 130.6 130.05 130.22 129.94 129.74 129.67 130.04 132.01 132 129.03 131.81 130.35 130.5 130.7 129.16 126.74 127.64 126.22 126.01 126.02 126.02 126.02 126.02 126.02 126.02 126.02 126.02 126.03 126.03 129.13 130.59 129.93 128.59 126.05 125.89 126.04 126.74 126.25 125.93 125.93 125.94 125.94 125.95 125.95 126.01 127.15 129.44 132.66 132.32 134.34 -9999 -9999
-9999 -9999 -9999 185.66 184.84 183.2 182.09 181.56 181.43 181.07 179.84 179.09 178.53 177.93 177.02 175.74 174.47 172.7 170.99 169.95 169.62 169.63 169.91 169.49 167.38 154.47 147.43 152.83 161.39 164.05 164.54 163.5 161.38 158.74 155.44 151.47 148.14 145.11 142.33 140.06 139.13 139.05 139.03 138.16 137.44 137.01 135.7 134.4 134.4 135.35 136.61 137.41 138.49 140.81 141.53 142.31 142.91 143.06 143.27 143.17 143.17 142.8 142.49 141.8 141.13 140.72 138.33 135.35 133.82 133.1 132.98 132.68 130.81 130.93 132.83 133.7 133.82 133.6 132.83 130.91 127.91 127.87 130.8 130.52 130.64 130.69 130.47 129.83 129.9 129.79 129.75 129.79 129.78 132.17 131.49 129.33 131.94 130.05 130.58 129.65 126.67 127.7 127.65 126.09 126.01 126.01 126.01 126.01 126.02 126.02 126.02 126.02 126.02 126.02 126.04 129.42 129.93 128.89 126.21 125.87 126.06 127.24 127.54 126.22 125.92 125.93 125.93 125.94 125.94 125.95 126.01 128.71 130.72 132.21 132.3 135.87 -9999 -9999
-9999 -9999 -9999 184.72 183.59 181.81 181.35 181.02 180.4 179.72 179.28 178.81 178.56 178.31 177.66 176.64 175.47 173.99 172.56 171.5 171.29 171.42 170.79 167 158.45 150.29 148.58 156.25 163.5 165.45 166.01 164.82 162.81 160.58 157.47 154.04 150.76 147.44 144.25 141.06 139.65 139.67 139.64 138.71 137.83 137.24 136.49 136.96 137.44 137.86 138.23 137.97 138.77 141.43 141.93 142.85 143.23 142.92 143.42 143.29 143.08 142.69 142.37 141.32 140.55 139.81 137.84 135.45 134.1 133.78 133.32 132.72 132.47 132.68 133.01 133.47 133.57 133.31 132.49 129.98 127.56 128.32 130.72 130.5 130.59 130.6 130.26 129.83 129.73 129.75 129.92 129.39 129.99 132.36 130.76 130.72 130.87 130.08 130.98 127.1 126.93 127.85 127.15 126 126 126 126.01 126.01 126.01 126.01 126.01 126.02 126.03 126.34 126.05 128.81 129.08 126.44 125.86 125.93 127.32 127.89 127.49 125.97 125.92 125.92 125.93 125.93 125.94 125.94 126.81 129.97 132.29 132.35 131.67 135.67 -9999 -9999
-9999 -9999 -9999 184.33 182.47 179.94 179.08 177.59 176.49 176.17 176.33 176.7 177.12 177.38 177 176.17 175.03 173.68 172.54 171.78 171.08 170.31 166.27 156.84 150.64 149.16 153.03 163.68 167.53 167.49 168.03 167.38 165.56 163.36 160.09 156.98 153.27 149.43 145.4 142.23 140.05 139.67 139.4 138.89 138.37 137.58 137.02 138.02 138.51 138.57 139.05 138.82 139.6 141.85 142.35 143.11 143.31 143.23 143.25 142.98 142.78 142.3 141.5 140.6 139.41 138.03 136.84 135.59 134.59 134.15 133.69 132.4 132.12 132.57 132.43 133.13 132.94 132.52 131.52 128.73 127.21 128.93 130.67 130.47 130.54 130.51 130.14 129.93 129.68 129.82 129.68 129.04 130.66 132.48 129.97 131.76 130.46 130.09 128.23 126.09 126.93 127.87 126.37 125.99 125.99 126 126 126 126 126.01 126.01 126.01 126.18 127.33 126.29 127.53 126.94 125.84 125.85 127.04 128.59 128.01 127.04 125.91 125.92 125.92 125.92 125.93 125.93 125.96 128.72 130.45 132.29 132.41 132.58 133.53 -9999 -9999
-9999 -9999 -9999 181.35 177.8 174.3 173.76 172.46 171.34 171.32 172.21 172.94 173.63 174.23 174.48 174.18 173.42 172.23 171.33 170.78 169.25 167.61 158.79 151.74 151.05 155.52 160.58 167.35 169.33 169.84 169.96 169.17 168.31 167.79 165.34 162.17 158.78 154.42 147.25 143.16 140.91 139.81 139.48 139.14 138.96 138.18 137.7 138.77 139.14 139.19 139.25 139.28 140.42 142.24 142.77 143.37 143.43 143.49 143.39 142.94 142.19 140.64 139.63 138.67 137.93 137.95 136.96 135.65 134.73 134.04 133.68 132.69 131.93 132.12 132.32 132.79 132.35 131.85 130.22 127.65 127.12 129.91 130.47 130.34 130.37 130.25 130.1 129.84 129.66 129.87 129.07 129.26 131.48 132.45 129.98 131.68 130.5 130.04 126.32 125.99 126.82 126.4 125.98 125.98 125.98 125.98 125.98 125.99 125.99 126 126 126 126.71 127.51 126.53 126.16 125.87 125.83 126.17 128.8 129.34 128.05 126.32 125.9 125.91 125.92 125.92 125.92 125.93 126.37 130.01 130.82 132.91 134.31 136.87 135.88 -9999 -9999
-9999 -9999 -9999 171.93 171 170.3 169.56 168.32 167.63 167.54 168.3 168.95 169.74 170.58 171.28 171.23 170.78 170.3 170.13 169.89 168.67 166.37 155.14 152.77 158.84 164.72 166.54 168.97 170.48 171.09 171.48 170.89 170.03 169.25 168.1 165.94 164.28 161.1 154.28 145.05 143.16 140.44 139.77 139.55 139.19 138.45 138.11 138.71 139.02 139.13 139.09 139.15 140.85 142.46 143.16 143.44 143.3 142.74 141.76 140.82 140.4 140.19 139.71 139.12 138.82 138.82 136.92 135.64 134.8 134.09 133.28 132.56 132.15 131.82 132.08 132.37 131.64 131.18 128.66 126.99 127.8 130.48 130.27 130.21 130.11 129.99 129.81 129.6 129.75 129.4 128.98 129.64 132.09 131.52 131.11 130.85 130.24 127.45 125.99 126.85 129.38 126.51 125.92 125.93 125.94 125.94 125.95 125.95 125.96 125.97 125.98 126 127.02 127.58 126.55 125.82 125.82 125.84 127.91 130.31 129.67 127.72 125.91 125.9 125.91 125.91 125.91 125.92 125.93 127.48 130.55 131.15 133.89 136.1 138.69 139.74 -9999 -9999
-9999 -9999 -9999 169.17 167.97 166.75 165.96 165.39 164.49 163.9 164.17 164.46 164.49 165.13 165.4 165.01 164.78 164.63 164.63 165.07 165.13 159.9 153.67 156.93 164.77 167.4 168.66 170.46 171.31 171.93 172.25 171.98 171.28 170.32 169.38 168.14 166.63 165.45 162.04 151.49 144.42 141.36 139.81 139.71 139.43 138.61 138.38 138.71 139 139.3 139.44 139.69 140.52 142.05 141.99 141.48 141.36 141.73 142.16 142.57 142 141.37 140.31 139.49 138.83 137.95 136.6 135.67 135.01 133.95 133.35 132.68 132.34 132.06 131.96 131.91 131.07 130.17 127.23 126.95 129.18 130.04 130.18 130 129.85 129.72 129.51 129.61 129.8 128.29 128.96 130.54 132.45 130.18 131.96 130.36 128.76 126.06 126.41 129.84 129.66 126.02 125.84 125.85 125.86 125.87 125.88 125.89 125.9 125.9 125.91 125.93 127.24 127.8 126.4 125.82 125.82 126.42 130.39 130.62 129.62 126.75 125.89 125.9 125.9 125.91 125.91 125.91 125.93 129.06 130.71 131.66 134.81 136.93 139.11 140.51 -9999 -9999
-9999 -9999 -9999 167.52 166.84 164.56 163.45 162.58 162.06 161.59 161.25 160.97 160.42 159.95 159.6 158.9 157.79 157.08 156.44 156.01 155.28 153.82 154.73 158.41 164.95 168.39 170.86 171.1 171.82 172.58 173 172.82 172.17 171.26 169.86 168.8 167.6 166.62 165.07 160.04 148.6 143 140.08 139.86 139.6 138.83 138.61 138.83 139.17 139.53 139.82 140.11 140.66 141.55 142.53 143.71 143.91 143.74 143.36 142.92 141.97 141.07 140 139.26 138.47 137.59 136.44 135.4 134.98 133.93 133.35 132.78 132.5 132.04 132.02 131.38 130.82 129.04 126.88 127.65 129.84 129.51 129.63 129.51 129.49 129.4 129.54 129.87 128.99 128.87 129.21 131.57 132.16 130.09 131.12 129.88 126.71 126.07 128.9 130.49 128.85 125.8 125.81 125.81 125.81 125.82 125.82 125.83 125.83 125.84 125.84 125.84 126.73 127.36 125.94 125.82 125.85 128.94 130.74 130.4 128.97 125.99 125.89 125.89 125.9 125.9 125.91 125.91 126.18 130.24 130.59 132.22 135.23 137.48 139.27 140.97 -9999 -9999
-9999 -9999 -9999 166.25 166.3 163.52 161.93 161.19 160.79 160.34 159.57 158.85 158.58 156.79 156.28 156.62 156.24 155.33 154.74 154.73 154.58 154.26 155.19 158.99 163.82 167.87 170.59 171.13 171.77 172.66 173.22 173.33 172.3 171.35 169.87 167.75 166.28 165.25 163.68 160.38 154.12 144.66 141.22 139.6 139.3 139.02 139.11 139.15 139.11 139.11 139.83 140.62 141.96 142.74 143.53 143.82 143.78 143.42 143.03 142.63 141.8 140.29 139.64 138.98 137.95 137.13 136.19 135.63 134.98 133.95 133.13 132.92 132.75 132.31 131.97 131.02 130.16 127.24 126.95 129.9 129.42 129.3 129.38 129.29 129.27 129.51 129.69 129.13 128.23 129.08 130.1 132.29 130.72 131.31 130.08 128.47 126.01 127.94 130.57 130.97 127.57 125.8 125.8 125.8 125.81 125.81 125.81 125.81 125.82 125.82 125.82 125.82 125.94 126.46 125.81 125.81 127.54 130.84 130.57 130.33 127.27 125.88 125.89 125.89 125.89 125.9 125.9 125.91 127.32 130.53 130.66 132.73 135.19 136.53 138.64 140.63 -9999 -9999
-9999 -9999 -9999 165.77 165.56 163.02 161.07 160.49 160.17 159.64 158.87 158.13 157.91 156.96 156.2 156 155.22 155.1 154.73 154.77 155.23 156.14 157.35 159.59 162.31 165.34 167.91 170.01 171.18 172.45 172.92 173.21 172.54 171.36 169.94 167.53 164.86 162.31 158 153.64 150.33 145.51 142.88 141.24 140.22 139.43 139.13 138.68 138.31 139.11 140 140.34 141.73 142.72 143.32 143.42 143.61 143.57 142.86 142.35 141.24 140.12 139.28 138.31 137.46 136.82 136.01 135.68 134.93 134.33 133.21 133.07 132.68 132.39 132.23 131.83 129.19 126.82 127.75 129.56 129.21 129.29 129.3 129.25 129.2 129.11 128.33 128.29 128.19 129.27 131.54 132.35 129.72 131.5 129.77 126.55 126.69 130.16 130.82 130.42 126.36 125.79 125.79 125.79 125.8 125.8 125.8 125.8 125.81 125.81 125.81 125.81 125.82 125.81 125.81 126.02 130.06 130.67 130.25 129.43 126.05 125.88 125.88 125.89 125.89 125.89 125.9 125.9 128.49 130.43 130.84 133.12 135.19 136.68 138.39 140.85 -9999 -9999
-9999 -9999 -9999 164.98 164.55 162.48 160.01 159.75 159.5 158.89 158.25 157.92 157.6 157.2 156.72 156.53 155.94 155.91 156.11 156.53 156.68 157.52 158.82 160.18 162.5 164.35 165.65 168.01 169.11 170.33 171.18 171.94 172.35 171.49 169.8 167.04 162.68 158.74 154.57 150.58 149.16 147.25 141.92 140.24 139.55 138.93 139.02 138.78 139.07 139.2 139.58 140.3 141.41 142.66 143 143.34 143.4 143.57 143.29 142.56 141.28 139.9 139.16 138.04 137.23 136.64 135.93 135.37 134.77 134.17 133.33 133.18 132.59 132.44 132.21 131.7 127.81 126.82 128.57 129.2 129.16 129.2 129.12 129.05 128.95 128.54 128.53 128.99 128.58 130.54 132.33 130.49 130.99 130.63 128.33 126.25 128.21 130.73 130.95 129.93 125.83 125.78 125.78 125.79 125.79 125.79 125.79 125.8 125.8 125.8 125.8 125.8 125.81 125.8 125.8 127.92 130.82 130.36 130.12 127.75 125.87 125.88 125.88 125.88 125.89 125.89 125.89 125.97 129.56 130.32 130.8 133.52 135.67 137.13 139.14 142.11 -9999 -9999
-9999 -9999 -9999 164.57 164.23 162.53 160.16 159.96 159.64 159.02 158.29 157.77 157.47 157.32 156.85 156.88 157.78 158.48 157.74 158.12 158.34 158.96 160.08 161.07 163.06 164.36 164.15 166.72 168.04 169.13 169.94 170.06 169.32 166.06 161.37 158.02 156.16 155.89 157.01 158.1 158.15 152.2 140.55 139.83 139.73 139.18 139.13 138.93 139.03 139.02 139.55 140.39 141.35 142.43 142.99 143.31 143.55 143.65 143.51 142.11 141.04 139.79 139.07 137.49 136.92 136.43 136.08 135.16 134.59 133.67 133.45 133.06 132.64 132.49 131.88 129.77 126.81 127.13 129.17 129.04 129.07 128.93 128.92 128.96 128.53 128.81 129.09 129.18 129.52 132.01 132.1 128.67 131.54 129.39 126.69 126.56 128.91 130.81 130.94 128.46 125.77 125.77 125.77 125.77 125.78 125.78 125.78 125.79 125.79 125.79 125.79 125.79 125.8 125.79 126.21 130.4 130.63 130.12 129.84 126.24 125.87 125.87 125.87 125.88 125.88 125.89 125.89 126.6 130.23 130.24 130.89 133.89 136.27 137.99 141.07 145.61 -9999 -9999
-9999 -9999 -9999 165.51 165.19 163.72 161.23 160.77 160.47 159.84 158.78 158.13 157.8 157.73 158.23 159.13 159.6 159.78 160.08 160.49 160.4 160.71 161.32 162.12 163.28 164.32 164.78 165.9 167.8 167.27 165.13 162.36 160.75 160.71 162.07 163.26 162.88 161.51 160.06 159.26 158.32 153.32 141.08 139.91 139.81 139.35 139.11 138.96 138.95 138.87 139.36 140.07 141.47 142.23 142.77 143.11 143.35 143.46 142.84 141.54 140.53 139.41 138.15 137.19 136.87 136.45 136.06 135.27 134.18 133.5 133.37 132.75 132.56 132.49 132.24 128.7 126.74 127.76 129.19 128.84 128.91 128.85 128.97 128.93 128.49 129.02 129.16 128.96 131.05 132.37 130.38 129.67 130.63 127.08 127.02 126.59 129.48 130.8 130.67 127.51 125.75 125.76 125.76 125.76 125.77 125.77 125.77 125.78 125.78 125.78 125.78 125.79 125.79 125.79 128.38 130.81 130.01 130.14 128.36 125.86 125.86 125.87 125.87 125.87 125.88 125.88 125.88 127.65 130.22 130.15 131.1 134.3 137.53 139.75 144.97 150.99 -9999 -9999
-9999 -9999 -9999 166.06 166.17 165.38 163.49 162.49 162.12 161.03 159.97 159.69 159.19 159.18 159.64 159.94 160.11 160.73 161.88 162.37 161.85 162.16 162.42 162.68 163.37 164.07 163.77 164.31 163.71 163.65 164.91 166.85 167.24 167.28 166.52 164.45 161.95 159.88 159.3 158.85 157.26 153.05 141.72 139.89 139.72 139.19 138.86 138.79 138.66 138.71 139.5 140.3 141.37 141.93 142.52 143.16 143.32 143.01 142.11 141.14 140.02 138.83 137.72 137.02 136.67 136.46 136.17 135.07 133.75 133.43 133.2 132.74 132.73 132.49 132.28 128.3 126.79 128.08 129.21 128.88 128.78 128.86 128.95 128.9 128.66 129.03 129.11 129.7 132.21 131.87 128.92 131.46 129.86 126.9 127.28 126.53 129.72 130.68 130.59 126.67 125.75 125.75 125.75 125.75 125.76 125.76 125.76 125.76 125.77 125.77 125.77 125.78 125.78 126.95 130.78 130.34 129.79 130.07 126.62 125.85 125.85 125.86 125.86 125.87 125.87 125.88 125.88 128.61 129.97 130.09 131.34 134.72 138.31 141.71 148.92 156.15 -9999 -9999
-9999 -9999 -9999 166.95 167.38 167.79 166.95 165.29 164.52 163.37 162.67 163.45 162.91 160.67 159.98 160.34 161.1 161.94 163.2 163.61 163.42 163.31 163.7 163.57 163.67 164.09 164.79 165.69 166.09 166.23 166.23 166.94 166.64 165.71 164.16 161.93 158.45 156.2 155.98 154.46 152.69 150.1 143.73 140.08 139.04 138.46 138.47 138.48 138.43 138.52 139.15 140.36 141.09 141.79 142.33 142.97 143.19 142.66 141.59 140.53 139.86 138.49 137.35 137 136.87 136.54 136.13 135 133.68 133.25 133.06 132.76 132.61 132.7 131.3 126.9 126.79 128.2 129.16 128.96 128.75 128.77 128.76 128.78 128.91 129.04 129.27 131.49 132.34 129.89 129.3 131.46 129.6 127.29 127 127.13 130.4 130.55 130.28 125.96 125.74 125.74 125.75 125.75 125.75 125.75 125.75 125.76 125.76 125.76 125.76 125.76 125.91 129.82 130.85 129.95 129.76 128.85 125.88 125.84 125.84 125.85 125.85 125.86 125.86 125.87 125.87 129.26 129.72 130.06 131.64 135.19 138.97 144 152.26 160.33 -9999 -9999
-9999 -9999 -9999 169.03 168.49 168.41 168.17 167.56 167 166.14 166.68 167.04 166.4 165.02 162.01 161.94 162.93 163.91 164.64 164.7 164.49 164.43 164.34 164.28 164.15 164.25 164.85 164.98 164.91 164.63 164.65 164.76 164.38 162.55 160.1 157.82 155.31 152.48 149.91 147.57 146.56 144.01 141.4 140.19 139.07 138.32 138.14 138.17 138.06 138.44 139.1 140.16 140.85 141.48 142.36 142.64 142.91 142.28 141.44 140.58 139.67 138.38 137.51 137.02 136.81 136.52 135.86 134.38 133.72 133.06 132.81 132.66 132.63 132.17 129.65 126.68 126.78 128.1 128.99 128.85 128.79 128.99 129.1 129.03 128.95 129.06 130.38 132.32 131.48 128.76 131.01 130.3 129.31 127.12 126.22 128.24 130.16 130.33 129.19 125.75 125.74 125.74 125.74 125.74 125.74 125.74 125.74 125.75 125.75 125.75 125.75 125.76 127.75 130.76 130.41 129.78 129.63 126.6 125.83 125.83 125.83 125.84 125.84 125.85 125.85 125.86 125.97 129.72 129.68 130.13 131.86 135.61 139.56 145.69 154.56 163.57 -9999 -9999
-9999 -9999 -9999 169.94 168.81 168.7 169.08 169.77 169.18 168.87 168.24 167.31 167.13 166.11 165.21 165.07 165.06 164.78 164.72 165.1 164.83 164.95 164.73 164.38 164.2 164.05 163.5 162.6 162.17 161.36 161.12 161.06 160.34 159.23 156.98 154.78 151.81 149.28 147.71 146.59 143.57 141.78 140.81 140.16 138.83 138.01 137.76 137.77 138.02 138.18 139.12 139.81 140.71 141.28 141.72 142.24 142.45 141.98 141.09 140.51 139.28 137.62 137.24 136.87 136.55 136.31 135.42 134.03 133.71 132.99 132.69 132.56 132.44 131.79 129.32 126.83 126.79 127.91 129 128.96 128.96 129 128.98 128.82 128.86 129.47 131.9 132.16 130.17 128.73 131.77 130.02 129.6 127.02 126.04 128.38 130.08 129.57 127.62 125.72 125.73 125.73 125.73 125.73 125.73 125.74 125.74 125.74 125.74 125.74 125.74 125.88 130 130.53 130.09 129.82 128.1 125.83 125.82 125.82 125.82 125.83 125.83 125.83 125.84 125.85 126.27 129.83 129.8 130.26 132.05 136.36 140.39 146.94 157.01 166.91 -9999 -9999
-9999 -9999 -9999 171.53 170.94 170.9 170.7 170.5 169.66 168.85 168.11 167.29 166.68 165.65 164.86 164.1 163.56 163.32 162.91 163.7 164.56 164.81 164.25 163.03 162.98 162.01 160.83 159.63 158.98 158.52 158.34 158.16 157.78 157.16 154.28 151.25 149.21 147.13 146.48 145.82 142.7 141.19 140.36 139.85 138.36 137.68 137.42 137.41 137.72 137.8 138.58 139.34 139.9 140.83 141.21 141.95 141.92 141.35 140.57 139.72 138.6 137.34 137.05 136.73 136.35 135.76 134.6 133.81 133.32 132.76 132.59 132.4 132.12 131.23 129.43 127.01 126.86 127.63 128.89 128.82 128.88 128.91 128.83 128.83 128.97 130.84 132.35 130.75 129.07 129.97 131.43 129.7 129.26 127.94 126.2 127.86 130 129.47 126.49 125.71 125.71 125.72 125.72 125.73 125.73 125.73 125.73 125.73 125.73 125.74 125.74 127.08 130.88 130.28 129.82 128.4 125.92 125.8 125.8 125.8 125.81 125.83 125.82 125.83 125.83 125.84 126.74 129.72 129.78 130.23 132.2 137.22 143.46 148.04 158.01 168 -9999 -9999
-9999 -9999 -9999 172.62 171.95 171.42 170.95 170.34 169.52 168.54 167.29 166.16 164.42 162.9 162.8 162.06 160.52 160.22 159.85 160.63 161.64 161.96 160.79 160 159.71 158.42 157.96 157.43 157.15 156.92 156.66 156 154.88 152.02 149.55 148.46 147.22 145.14 143.96 142.48 141.41 140.37 139.49 138.48 137.67 137.17 137.02 137.04 137.27 137.64 138.07 138.69 139.09 139.96 140.48 141.09 141.3 140.72 140.03 139.12 138.07 137.15 136.96 136.69 136.31 135.45 134.31 133.65 133.16 132.88 132.73 132.43 132.01 130.76 129.33 126.92 127.04 127.15 128.83 128.67 128.75 128.82 128.76 128.87 129.51 132.15 131.86 129.21 128.71 131.66 130.52 129.82 129.48 129.5 126.71 126.53 129.61 128.94 125.77 125.71 125.71 125.71 125.71 125.71 125.72 125.72 125.72 125.72 125.72 125.73 125.77 129.44 130.68 129.96 128.12 125.9 125.78 125.78 125.78 125.8 126.18 126.28 125.8 125.81 125.81 125.82 127 129.61 129.71 130.21 132.54 138.03 145.44 149.79 159.41 169 -9999 -9999
-9999 -9999 -9999 172.53 172.16 171.8 171.22 170.18 169.36 167.35 164.55 162.1 160.43 159.41 158.05 156.92 156.62 156.96 156.39 155.8 155.87 156.25 156.46 157 156.75 156.21 155.7 154.9 153.73 153.2 152.63 151.95 150.56 149.11 148.63 148.62 147.53 144.25 143.59 141.86 141.15 139.8 139.12 137.91 137.41 137.08 136.68 136.57 136.86 137.14 137.79 138.02 138.68 139.22 139.94 140.25 140.53 140.02 139.78 138.46 137.58 136.89 136.81 136.49 136.05 135 134.2 133.47 132.89 132.88 132.67 132.33 132.01 130.43 129.29 126.89 127.26 126.99 128.34 128.41 128.37 128.58 128.72 128.84 131.15 132.38 130.09 128.76 129.7 131.72 130.44 130.13 129.76 129.49 128.35 125.85 129.07 128.07 125.69 125.7 125.7 125.7 125.7 125.7 125.7 125.71 125.71 125.72 125.72 125.72 127.03 130.86 130.19 128.55 125.9 125.97 126.01 125.75 125.76 125.99 126.62 126.67 125.8 125.78 125.79 125.79 127.19 129.55 129.66 130.23 132.92 139.26 145.79 151.52 163.61 174.21 -9999 -9999
-9999 -9999 -9999 172.31 172.36 172.13 171.13 169.9 168.56 165.48 161.96 159.37 157.48 155.74 154.44 154.14 154.32 154.25 154.49 154.43 154.06 153.87 153.89 153.99 153.1 152.44 150.83 149 148.54 148.5 148.84 149.71 149.35 148.52 148.55 148.61 147.39 144.17 143.45 141.69 140.86 139.37 138.93 137.71 137.38 137.02 136.43 136.34 136.68 137.17 137.6 138.01 138.61 138.93 139.51 139.64 139.7 139.55 138.96 137.7 137.11 136.72 136.44 136.07 135.49 134.47 134.39 133.29 132.65 132.81 132.64 132.23 131.9 130.37 129.15 126.79 126.94 127.36 128.02 128.29 128.11 128.22 128.31 129.58 132.28 131.39 129.25 128.77 131.2 130.96 130.31 130.44 130.07 129.26 128.92 126.37 127.46 127.01 125.68 125.68 125.69 125.69 125.69 125.69 125.69 125.7 125.7 125.7 125.71 125.88 129.69 130.51 127.84 125.85 126.41 127.74 125.8 125.74 125.75 126.24 126.93 126.85 125.79 125.76 125.76 125.77 127.06 129.48 129.56 130.23 133.49 140.51 147.03 154.25 166.24 177.99 -9999 -9999
-9999 -9999 -9999 172.37 172.19 171.14 169.56 167.88 165.52 162.15 159.36 157.81 156.5 155.07 153.97 153.23 152.76 152.29 152.71 152.95 152.63 152.16 151.79 150.52 148.84 147.31 146.91 147.92 148.01 147.99 148.98 149.35 148.38 148.39 148.56 148.66 147.23 144.2 143.29 140.77 139.68 139.38 138.82 137.67 137.38 136.98 136.23 136.21 136.48 137.11 137.19 137.7 138.22 138.89 139.34 139.33 139.17 138.99 137.96 137.23 136.75 136.64 136.19 135.84 134.88 134.15 133.6 132.62 132.54 132.71 132.6 132.22 131.71 130.74 128.92 126.54 126.77 127.83 128.92 129.06 128.86 128.52 128.63 131.62 132.24 130.03 128.9 129.65 131.85 130.3 130.31 130.39 129.94 129.63 129.26 127.32 126.41 126.16 125.68 125.68 125.68 125.68 125.68 125.68 125.69 125.69 125.69 125.69 125.72 128.33 130.11 127.06 125.73 126.83 130.08 127.06 125.72 125.72 125.8 127.02 127.54 127.35 125.78 125.74 125.74 125.75 126.86 129.4 129.55 130.29 134.21 140.74 147.9 156.25 168.1 177.84 -9999 -9999
-9999 -9999 -9999 171.68 171.04 168.07 165.13 163.11 161.3 159.29 157.84 156.95 156.15 155.31 154.67 153.7 152.89 152.03 151.49 151.1 150.5 149.89 149.54 148.01 147 147.12 146.82 147.04 147.21 147.56 148.52 148.42 148.34 148.4 148.36 148.3 147.27 144.12 143.07 140.98 140 139.64 138.84 137.69 137.37 136.95 136.13 136.26 136.53 136.9 136.91 137.37 137.82 138.36 138.89 138.93 138.66 137.84 137.11 136.88 136.56 136.24 135.79 135.37 134.54 133.88 132.98 132.57 132.52 132.69 132.41 132.29 132.19 131.06 128.45 126.38 126.58 128.27 129.83 129.91 130.01 129.53 130.52 132.36 131.25 129.39 129.04 130.76 131.71 130.24 130.15 130.28 129.75 129.66 129.56 127.45 126.13 125.8 125.68 125.67 125.67 125.67 125.67 125.67 125.67 125.68 125.68 125.68 126.69 129.76 126.63 125.76 127.69 130.39 129.65 125.82 125.7 125.71 126.32 127.79 128.07 127.55 125.85 125.72 125.72 125.72 126.93 129.39 129.53 130.44 134.85 141.4 149 158.99 173.07 184.73 -9999 -9999
-9999 -9999 -9999 170.99 169.91 166.19 163.45 161.42 160.01 159.21 158.57 158.21 157.34 156.36 155.98 153.91 152.21 151.99 150.99 150.01 149.29 147.36 148.12 147.25 147 146.85 146.56 146.51 146.42 146.96 148.02 148.24 148.32 148.32 148.24 148.1 147.86 145.78 143.67 142.9 140.76 139.49 138.76 137.82 137.31 136.75 135.99 136.18 136.45 136.6 136.79 137.06 137.48 137.78 138.14 138.04 138.15 137.31 136.74 136.46 136.24 136 135.68 134.85 134.18 133.07 132.68 132.82 132.52 132.4 132.15 132.3 132.2 130.16 127.8 126.31 126.82 129.96 130.08 130.02 130.22 130.43 132.19 132.04 129.59 128.87 130.36 131.78 130.99 130.54 129.83 130.03 129.68 129.66 129.64 127.07 125.67 125.66 125.67 125.67 125.67 125.67 125.67 125.67 125.67 125.67 125.67 125.77 128.74 126.66 125.94 128.74 130.42 130.84 127.27 125.69 125.69 125.69 127.16 128.04 128.27 127.89 125.88 125.7 125.7 125.7 126.87 129.35 129.46 130.72 135.48 141.26 148.99 160.78 176.51 188.19 -9999 -9999
-9999 -9999 -9999 168.22 166.36 163.76 163.53 162.5 161.06 160.19 160.2 159.5 158.73 157.53 157.08 153.27 149.73 151.35 150.69 149.03 147.68 146.81 147.21 146.72 146.46 146.11 145.97 145.78 145.62 146.13 147.29 148.19 148.31 148.34 148.27 148.03 147.98 146.92 144.53 143.5 140.89 139.52 138.55 137.35 136.91 136.39 135.87 136.06 136.33 136.52 136.73 136.79 136.78 137.09 137.34 137.34 137.35 136.8 136.55 136.32 136.09 135.75 135.16 134.4 133.82 132.86 132.5 132.63 132.61 132.43 132.18 132.05 131.64 129.19 127.05 126.28 127.89 130.2 130.1 130.17 129.64 131.2 132.52 130.22 128.64 130.23 130.94 131.74 130.95 130.81 129.76 129.81 129.91 129.58 129.43 126.14 125.63 125.64 125.65 125.65 125.66 125.66 125.66 125.66 125.66 125.66 125.66 126.85 127.4 125.86 129.13 130.27 130.76 130.46 125.88 125.68 125.68 125.77 127.63 128.22 128.39 128.11 125.86 125.69 125.69 125.69 126.75 129.39 129.56 131.25 136.17 141.42 148.54 162.62 181.22 194.27 -9999 -9999
-9999 -9999 -9999 166.49 164.74 164.61 165.02 163.66 162.37 161.65 161.78 160.88 160.03 158.76 158.21 155.16 152.47 152.26 151.16 148.94 147.53 147.19 146.31 145.95 145.56 145.31 145.26 145.27 145.28 146.43 147.41 148.14 148.32 148.37 148.25 148 148.02 147.09 144.9 144.09 141.91 140.7 138.04 137.02 137.06 136.6 135.85 136.12 136.17 136.4 136.53 136.5 136.39 136.71 136.89 137.11 136.89 136.52 136.31 136.13 136.17 135.62 134.92 134 133.4 132.86 132.72 132.69 132.78 132.56 132.3 131.99 131.26 128.52 126.42 126.37 129.44 130.08 130.16 129.66 130.04 132.7 131.91 129.16 129.8 130.23 131.91 130.94 130.96 130.76 129.67 130.05 130 129.54 128.82 125.65 125.61 125.62 125.62 125.63 125.64 125.64 125.65 125.65 125.65 125.65 125.65 127.1 125.71 127.94 130.03 130.51 130.99 128.45 125.67 125.67 125.67 126.16 127.96 128.38 128.91 128.26 125.84 125.68 125.68 125.68 126.79 129.41 129.61 131.86 136.99 142.71 150.75 164.89 181.11 193.39 -9999 -9999
-9999 -9999 -9999 166.12 166.23 166.41 166.58 165.1 164.47 163.42 163.48 162.4 161.3 159.94 158.75 156.54 154.77 153.54 152.09 150.06 147.9 147.53 146.09 144.96 144.46 144.6 144.9 145.01 145.32 146.44 147.18 148.1 148.32 148.36 148.23 147.94 147.98 147.14 145.01 144.12 142.42 141.55 138.16 137.16 137.11 136.64 135.8 135.99 135.99 136.2 136.25 136.21 136.26 136.48 136.71 136.9 136.51 136.27 136.05 136.07 135.95 135.31 134.67 133.78 133.2 132.82 132.75 132.5 132.47 132.1 132.09 131.98 131.21 127.73 126.23 127.26 130.17 130.09 129.93 129.2 132.82 133.19 130.8 130.05 129.97 131.28 131.47 130.93 130.9 130.8 129.6 130.12 129.95 129.56 127.36 125.59 125.6 125.6 125.61 125.61 125.61 125.62 125.63 125.63 125.64 125.64 125.7 125.91 126.61 129.86 130.1 130.7 130.97 126.66 125.66 125.66 125.67 126.53 127.69 128.7 129.39 128.44 125.82 125.67 125.68 125.68 126.84 129.41 129.71 132.85 137.87 143.93 152.6 165.94 179.99 189.48 -9999 -9999
-9999 -9999 -9999 167.77 168.59 168.3 168.41 167.14 166.65 165.35 164.62 163.74 162.4 161.18 159.19 157.05 155.46 154.21 152.7 150.78 148.84 147.59 145.81 144.69 144.19 144.19 144.15 144.59 145.4 146.16 146.96 148.08 148.32 148.34 148.21 147.85 147.89 147.03 145.09 144.04 142.34 141.53 138.15 137.27 137.13 136.67 135.87 135.93 135.87 135.86 135.79 135.83 136.15 136.3 136.53 136.45 136.37 136.21 136.03 136.02 135.54 135.05 134.47 133.35 132.79 132.61 132.65 132.25 132.06 131.96 132.11 131.91 130.08 126.65 126.22 128.73 130.04 130.11 129.15 131.79 134.06 132.61 130.42 130.09 130.21 131.93 130.92 130.98 130.95 130.69 129.47 130 129.7 129.19 125.94 125.59 125.59 125.6 125.6 125.6 125.61 125.61 125.62 125.62 125.63 125.63 125.64 125.67 128.26 129.94 130.3 130.8 130.36 125.84 125.65 125.65 125.69 126.8 128.09 129.9 130.02 128.49 125.76 125.66 125.67 125.67 127.2 129.48 129.97 134.08 139.35 146.17 154.39 164.54 174.59 182.03 -9999 -9999
-9999 -9999 -9999 170.36 170.54 170.27 170.27 169.47 168.91 167.63 166.62 165.71 164.17 162.97 160.29 158.1 156.6 155.03 153.8 151.3 149.29 147.86 145.98 144.77 144.02 143.91 143.75 144.12 144.91 145.77 146.6 147.97 148.31 148.3 148.18 147.77 147.77 146.97 145.11 143.94 141.9 141.15 138.3 137.11 136.94 136.6 135.92 135.89 135.63 135.49 135.34 135.53 135.76 135.99 136.15 135.99 136.15 135.99 135.79 135.68 135.41 134.7 133.88 133.13 132.81 132.69 132.84 132.79 132.07 131.9 131.93 131.69 128.4 126.2 126.49 129.94 129.95 129.45 130.42 134.66 134.45 131.01 130.19 130.11 131.51 130.67 130.83 130.99 131.11 130.37 129.3 129.85 129.71 127.66 125.59 125.58 125.59 125.59 125.59 125.6 125.6 125.61 125.61 125.62 125.62 125.62 125.63 126.01 129.21 129.97 130.45 131 129.15 125.64 125.64 125.64 125.78 127.07 128.96 130.45 130.13 128.18 125.66 125.65 125.66 125.66 127.35 129.43 130.67 135.24 141.12 146.39 152.91 159.36 169.06 178.48 -9999 -9999
-9999 -9999 -9999 172.59 172.11 172.39 171.5 171.71 171.26 170.56 169.36 168.03 166.39 165.01 162.02 159.64 157.77 155.76 154.67 151.75 150.28 148.22 146.28 144.86 143.61 143.49 143.48 143.59 144.23 144.9 145.93 146.87 147.62 147.91 147.79 147.72 147.54 146.28 144.78 144.09 142.09 140.57 139.35 138.27 137.18 136.48 135.87 135.6 135.24 135.16 134.83 135.2 135.28 135.42 135.22 135.59 135.87 135.88 135.38 135.48 135.13 134.24 133.64 133.11 132.97 132.65 133.23 132.79 132.09 132.07 132 130.41 127.07 126.15 127.6 130.1 129.62 128.8 133.94 135.78 133.23 129.81 129.68 130.85 130.82 129.98 130.52 130.89 131.17 129.85 129.26 129.96 129.5 126.02 125.58 125.58 125.58 125.58 125.59 125.59 125.6 125.6 125.6 125.61 125.61 125.62 125.62 126.48 129.78 130.16 130.57 131 128.37 125.63 125.64 125.64 125.88 127.4 129.75 130.42 130.07 127.82 125.65 125.65 125.65 125.66 127.6 129.24 131.68 136.88 141.82 147.59 153.85 162.57 172.46 179.94 -9999 -9999
-9999 -9999 -9999 175.07 174.23 173.93 173.91 173.85 173.49 172.86 171.92 170.49 168.23 166.67 164.1 160.95 158.34 156.26 154.97 152.47 150.88 149.14 146.94 144.68 143.52 143.5 143.37 142.85 142.87 144.07 145.09 146.09 146.92 147.73 147.46 147.64 147.05 145.77 144.7 144.48 141.83 140.13 139.19 138.46 136.88 136.49 136.03 135.54 135.11 134.81 134.62 134.75 134.81 134.62 134.86 135.47 135.66 135.47 135.08 134.89 134.53 133.57 133.18 132.97 132.73 132.65 132.65 132.37 132.01 131.79 131.51 128.98 126.36 126.14 128.25 129.44 128.92 130.43 136.44 135.75 130.85 129.26 130.09 131.79 130.12 129.75 130.03 130.73 130.99 129.38 129.31 130.01 128.02 125.58 125.57 125.58 125.58 125.58 125.58 125.59 125.59 125.59 125.6 125.6 125.61 125.61 125.61 127.43 129.99 130.23 130.7 131.05 126.86 125.63 125.63 125.63 126.03 127.79 130.28 130.36 130.02 127.21 125.64 125.64 125.65 125.65 127.83 129.53 133.41 138.85 145.07 153.26 157.91 164.64 172.49 178.33 -9999 -9999
-9999 -9999 -9999 176.63 176.27 175.54 175.59 176.05 175.47 174.75 173.63 172.62 170.91 169.16 166.21 162.38 159.28 157.59 155.91 153.04 151.3 148.44 147.13 144.77 143.52 143.59 143.32 142.26 141.95 143.22 144.32 145.5 146.57 147.08 146.77 146.84 146.01 145.13 144.1 143.27 141.23 140.04 138.97 138.18 136.87 136.55 136.17 135.65 135.11 134.96 135.15 134.81 134.77 134.63 134.97 135.34 135.28 134.7 134.42 134.32 133.86 133.2 133.04 132.96 132.69 132.79 132.56 132.4 131.99 131.79 130.61 127.9 126.11 126.12 128.02 129.03 128.75 135.63 137.41 132.76 129.65 130.18 131.97 131.69 131.76 131.16 130.32 129.97 130.14 129.06 129.55 129.84 126.17 125.57 125.57 125.57 125.57 125.58 125.58 125.58 125.58 125.59 125.59 125.6 125.6 125.6 125.71 129.05 129.98 130.57 131.08 130.44 125.92 125.62 125.62 125.62 126.1 128.31 130.49 130.11 129.7 126.32 125.63 125.64 125.64 125.64 128.32 130.86 134.85 141.8 150.93 162.57 167.92 171.64 178.14 181.7 -9999 -9999
-9999 -9999 -9999 177.11 177.45 177.83 178.02 177.86 177.29 176.43 175.51 174.95 173.13 170.94 168.27 164.49 161.01 158.42 156.61 153.6 151.44 148.49 148.11 145.57 143.53 143.44 142.88 141.94 141.68 143.22 143.81 144.87 145.87 146.24 146.14 146.4 144.98 143.84 143.35 142.86 140.71 139.74 138.63 137.79 136.99 136.77 136.27 135.87 135.5 135.45 135.59 135.35 135.37 135.17 135.08 135.11 134.91 134.45 134.09 134.03 133.11 133.06 132.93 132.8 132.76 132.82 132.67 132.44 132.14 131.68 129.62 127.1 126.08 126.21 128.29 128.53 133.19 138.43 135.97 130.22 130.25 131.22 132.71 132.02 132.21 132.29 131.97 131.11 129.52 128.84 129.58 128.27 125.56 125.56 125.57 125.57 125.57 125.57 125.57 125.57 125.58 125.58 125.58 125.59 125.59 125.6 126.95 130.05 130.25 130.78 130.97 129.5 125.64 125.61 125.61 125.61 126.06 128.99 130.58 130.17 129.26 125.69 125.63 125.63 125.63 125.73 128.83 132.57 137.07 145.78 156.76 170.89 177.89 180.37 183.74 186.01 -9999 -9999
-9999 -9999 -9999 176.94 177.42 178.64 178.8 178.57 177.93 177.12 176.18 175.4 173.82 172.05 170.63 165.63 161.91 159.26 156.36 153.9 151.28 148.94 148.55 145.62 143.37 143.33 142.5 141.65 141.34 143.15 143.41 144.03 144.72 145.07 145.32 145.79 144.15 142.99 142.38 141.46 140.12 139.1 138.18 137.86 137.01 136.78 136.32 136.01 135.79 135.98 135.97 135.99 135.91 135.96 135.45 135.07 134.59 134.41 134.08 133.82 132.89 132.83 132.83 132.85 132.64 132.5 132.33 132.2 132.05 131.15 128.57 126.3 126.06 126.43 128.29 130.21 138.43 138.87 132.24 130.25 131.36 132.53 132.57 132.21 132.36 132.48 132.24 131.63 129.29 128.95 129.58 126.4 125.54 125.55 125.56 125.56 125.56 125.57 125.57 125.57 125.57 125.57 125.58 125.58 125.58 125.62 128.84 130.25 130.39 130.61 130.91 129 125.61 125.61 125.61 125.61 125.83 129.55 130.37 130.25 127.99 125.62 125.62 125.63 125.63 126.13 129.78 134.36 141.15 149.87 163.51 174.57 179.15 181.75 184.03 185.2 -9999 -9999
-9999 -9999 -9999 176.68 176.85 177.94 178.37 178.21 177.74 176.93 176.03 174.83 173.24 172.06 170.33 164.93 162.4 159.31 155.98 153.96 151.02 149.02 148.57 144.86 142.91 143.28 142.32 141.45 140.76 141.93 142.63 143.41 144.03 144.72 144.49 144.33 143.06 142.4 141.45 140.66 139.57 138.78 137.92 137.51 136.85 136.77 136.48 136.2 136.3 136.34 136.3 136.31 136.17 136.05 135.49 135.11 134.34 133.91 133.85 133.85 133.43 132.93 132.98 132.83 132.56 132.35 132.36 132.15 131.69 129.84 127.74 126.03 126.04 126.77 128.57 136.44 140.23 136.29 130.56 131.5 132.39 132.33 132.72 132.44 132.52 132.53 132.25 131.56 129.05 129.08 128.03 125.56 125.54 125.54 125.54 125.55 125.55 125.56 125.56 125.56 125.57 125.57 125.57 125.57 125.58 126.45 130.22 130.37 130.39 130.68 131.03 128.23 125.6 125.6 125.79 125.66 125.64 129.7 130.19 130.27 126.74 125.61 125.62 125.62 125.62 127.08 131.87 137.2 145.55 153.29 167.47 173.89 176.26 178.09 179.16 176.87 -9999 -9999
-9999 -9999 -9999 176.39 176.49 177.18 177.83 177.5 176.72 175.97 174.32 172.9 172.38 171.71 169.08 163.56 160.86 157.58 155.2 153.83 150.46 148.96 148.48 144.58 142.75 142.63 142.09 141.16 140.38 141.62 141.98 142.6 143.4 144.22 143.7 143.46 142.4 141.5 140.4 139.56 138.72 138.32 137.6 137.16 136.62 136.76 136.59 136.05 136.27 136.37 136.32 136.2 135.96 135.68 135.46 135.16 134.99 133.92 133.49 133.16 132.9 132.8 132.89 132.52 132.3 132.12 132.62 132.36 131.85 130.71 126.69 126.01 126.64 128.06 132.75 140.56 139.85 132.07 131.22 132.28 132.45 132.39 132.78 132.69 132.6 132.5 132.31 131.02 128.92 128.67 125.82 125.52 125.53 125.53 125.53 125.54 125.54 125.54 125.55 125.55 125.56 125.56 125.57 125.57 125.57 128.3 130.23 130.2 130.3 130.84 130.68 126.99 125.59 125.61 126.59 126.06 125.61 129.05 129.98 129.72 125.85 125.6 125.61 125.61 125.78 129.9 134.3 140.33 145.94 154.68 165.3 169.67 171.18 172.51 170.54 163.34 -9999 -9999
-9999 -9999 176.04 176.17 176.13 176.44 176.79 176.36 175.64 174.51 172.84 172.26 170.99 168.82 166.16 161.04 158.6 155.64 154.29 153.12 149.73 148.88 148.39 144.58 142.77 141.3 140.91 140.73 140.02 140.91 141.09 141.53 142.04 142.95 142.62 141.79 140.91 140.51 139.63 139.16 138.08 137.83 137.21 137 136.48 136.79 136.56 136.14 136.05 136.15 136.04 135.95 135.86 135.45 135.28 133.95 133.67 133.09 133.04 133.44 133.6 133.28 132.8 132.3 132.11 132.33 132.28 132.22 131.8 129.06 126.13 126.23 127.77 129.84 133.9 135.31 134.91 132.43 132.4 132.42 132.46 132.58 132.83 132.94 132.69 132.46 132.42 130.37 128.92 126.72 125.51 125.51 125.52 125.52 125.52 125.53 125.53 125.53 125.54 125.54 125.55 125.55 125.55 125.56 125.93 129.83 130.18 130.17 130.37 130.97 129.79 125.86 125.58 125.73 127.32 126.47 125.59 127.91 129.96 128.22 125.6 125.6 125.6 125.6 127.13 132.4 137.02 140.11 145 153.15 160.32 163.3 164.57 165.31 162.28 157.51 -9999 -9999
-9999 -9999 176.02 176.03 175.81 175.81 176.16 175.78 175.18 173.97 172.21 172.26 170.12 168.11 163.88 159.22 157.49 155.19 153.97 152.3 149.26 148.79 148.3 144.62 142.82 140.82 140.38 140.26 139.74 139.9 140.1 140.51 140.81 141.2 140.95 140.44 139.63 139.04 138.53 138.27 137.57 137.36 136.81 136.77 136.38 136.54 136.49 136.21 135.95 135.92 135.82 135.71 135.47 135.35 134.81 133.73 133.25 133.25 133.84 134.04 134.2 133.29 132.71 131.86 131.53 131.64 132.12 132.35 130.9 126.66 126.39 127.68 128.51 135.63 141.03 138.26 132.25 131.93 132.19 132.36 132.61 132.82 133.26 133.35 133.08 132.61 132.23 129.66 127.83 125.51 125.49 125.5 125.5 125.51 125.51 125.52 125.52 125.52 125.53 125.53 125.53 125.54 125.54 125.55 127.1 129.83 130.08 129.95 130.57 130.62 127.38 125.57 125.57 126.43 128.06 127.12 125.61 127.06 129.71 126.54 125.59 125.59 125.59 125.63 129.88 135.12 141.12 140.6 142.45 146.54 151.46 153.6 153.7 154.91 156.64 -9999 -9999 -9999
-9999 -9999 175.78 175.87 175.61 175.48 175.41 175.2 174.68 173.67 172.66 172.53 170.83 168.32 162.32 159.37 157.29 154.9 153.42 151.48 148.89 147.94 146.77 144.2 142.74 141.48 141.21 140.27 139.51 139.46 139.67 139.81 139.91 139.98 139.76 139.45 138.65 138.44 138.03 137.66 136.89 136.94 136.52 136.52 136.06 136.21 136.33 136.1 135.76 135.57 135.43 135.33 135.13 135.05 134.48 133.52 133.34 133.86 134.04 134.6 134.34 133.5 132.45 131.98 131.57 131.36 131.04 131.35 129.07 125.97 127.3 127.84 131.59 141.16 142.31 135.36 131.45 131.42 131.7 132.07 132.26 132.41 132.64 132.94 133.1 132.95 132.46 130.4 126.13 125.48 125.48 125.49 125.49 125.5 125.5 125.5 125.51 125.51 125.52 125.52 125.52 125.53 125.53 125.57 128.58 129.8 129.97 130.23 130.67 128.67 125.9 125.56 125.69 128.09 128.24 127.6 125.75 126.37 128.42 125.61 125.58 125.58 125.59 127.06 132.64 140.3 146.82 148.03 147.65 146.14 147.53 150.16 154.11 158.63 163.31 -9999 -9999 -9999
-9999 -9999 175.45 175.57 175.32 174.95 174.57 173.93 172.52 172.19 172.59 172.4 171.01 168.62 163.28 160.15 156.98 154.43 153.05 151.31 148.95 147.38 145.61 144.32 143.39 142.35 141.45 140.17 139.45 139.24 139.45 139.25 139.13 139.12 138.89 138.56 137.95 138.02 137.63 137.25 136.52 136.73 136.33 136.45 135.98 136.07 136.04 135.84 135.54 135.45 135.12 135.02 134.86 134.49 134.08 133.39 133.6 134.1 134.67 135.52 134.56 133.47 132.59 132.03 131.78 131.47 130.82 130.2 127.34 126.24 127.71 128.91 138.12 142.74 139.54 131.9 131.34 131.41 131.66 132.04 132.3 132.28 132.34 132.33 132.45 132.39 130.61 128.01 125.5 125.46 125.47 125.48 125.48 125.48 125.49 125.49 125.5 125.5 125.51 125.51 125.51 125.52 125.52 126.01 129.43 129.79 130.22 130.4 128.89 126.41 125.56 125.61 127.59 129.58 128.76 127.26 126.03 125.91 126.3 125.57 125.57 125.58 125.84 130.83 136.96 148.18 157.12 158.82 158.01 154.16 158.9 163.01 166.85 170.94 175.25 -9999 -9999 -9999
-9999 -9999 175.43 175.39 174.96 174.58 173.73 172.25 171.16 171.33 171.51 171.34 170.11 167.58 163.52 159.33 155.98 154.16 152.83 150.66 148.92 147.3 145.91 144.75 143.64 142.8 141.41 140.35 139.51 139.18 139.23 139.18 138.54 138.68 138.43 138.55 137.54 137.54 137.16 136.75 136.17 136.42 136.09 136.34 135.83 135.73 135.6 135.72 135.63 135.29 134.93 134.79 134.69 134.15 133.59 133.74 133.77 134.6 135.44 135.63 134.68 133.23 132.55 132.08 131.86 131.62 131.04 129.89 126.33 126.58 127.89 133.65 142.27 142.1 133.93 131.31 131.27 131.37 131.6 132.08 132.31 132.25 132.28 132.08 132.04 131.61 129.36 125.75 125.45 125.45 125.46 125.46 125.47 125.47 125.48 125.48 125.49 125.49 125.49 125.5 125.5 125.51 125.51 126.79 129.82 130.16 129.82 128.16 126.25 125.55 125.62 127.17 130.27 130.14 129.25 127.37 126.17 125.56 125.56 125.56 125.57 125.61 128.24 133.57 144.82 154.76 167.7 170.09 168.99 162.86 168.79 174.17 177.49 179.84 182.65 -9999 -9999 -9999
-9999 -9999 176.03 175.43 174.43 174.17 173.51 171.98 170.64 169.68 169.75 169.43 168.37 165.21 161.17 157.53 155.05 153.75 152.54 150.35 148.87 147.7 146.79 145.58 144.46 142.75 141.74 140.99 140.18 139.3 138.92 138.69 138.27 137.79 137.74 137.37 137.04 136.89 136.87 136.51 136.26 136.13 135.94 135.95 135.69 135.45 135.12 135.21 135.36 135.06 134.77 134.48 134.28 133.8 133.71 133.85 134.05 135.31 135.79 135.79 134.58 133.13 132.52 132.15 131.73 131.36 130.72 128.67 125.9 127.21 129.8 139.72 142.72 137.85 131.07 131.36 131.29 131.32 131.57 132.04 132.07 132.11 132.05 131.91 131.83 130.79 127.01 125.44 125.44 125.44 125.45 125.45 125.46 125.46 125.46 125.47 125.47 125.48 125.48 125.49 125.49 125.49 125.5 127.75 130.26 128.8 126.39 125.66 125.53 125.82 127.71 130.51 130.87 130.3 129.41 127.04 125.76 125.55 125.55 125.56 125.6 127.99 132.19 139.66 151.17 164.39 173.84 176.13 175.11 171.35 172.51 175.64 179.48 182.34 184.56 -9999 -9999 -9999
-9999 -9999 176.49 175.96 174.35 173.63 173.22 172.17 170.95 169.23 168.66 167.96 165.35 161.57 158.95 156.93 154.89 153.7 152.36 150.13 148.73 147.79 147.08 145.52 145.48 143.6 142.74 142.59 141.45 140.82 140.08 139.52 139.19 138.57 138.81 137.65 137.78 138.12 137.48 137.54 136.5 136.28 136.12 135.67 135.13 135.21 134.84 134.59 134.86 134.87 134.6 134.29 134.1 133.68 133.77 134.18 134.89 135.9 136.12 136.06 133.98 133.1 132.53 132.15 131.58 131.28 130.86 127.17 126.06 128.08 134.49 142.23 140.93 132.3 131.01 131.32 131.33 131.32 131.62 131.9 131.86 131.94 131.72 131.7 131.55 129.46 125.53 125.43 125.43 125.49 125.44 125.44 125.45 125.45 125.45 125.46 125.46 125.47 125.47 125.48 125.48 125.49 125.5 129.29 129.2 125.78 125.5 125.51 126.33 130.67 131.69 131.74 131.52 131.01 128.79 126.12 125.54 125.54 125.55 125.55 126.44 130.64 135.32 147.23 155.03 171.19 176.99 178.48 178.06 175.91 175.04 176.61 178.58 179.57 180.46 -9999 -9999 -9999
-9999 -9999 175.73 174.99 174.16 173.56 172.74 171.59 170.41 168.94 167.6 166.22 163.18 160.96 158.81 156.7 154.94 153.74 151.95 150 148.69 148.12 146.87 145.79 145.69 144.62 143.89 143.58 142.8 141.82 141.13 140.38 139.91 139.73 139.33 138.71 138.49 138.57 138.05 138.73 137.21 136.7 136.34 135.87 134.87 134.85 134.82 134.59 134.53 134.77 134.48 134.19 133.87 133.68 134.07 134.84 135.57 136.22 136.68 136.06 133.9 133.05 132.46 132.1 131.55 131.01 129.41 125.91 126.9 129.61 139.51 142.03 135.85 130.45 131.2 131.33 131.41 131.33 131.56 131.65 131.7 131.79 131.58 131.43 131.07 127.7 125.41 125.42 125.5 125.79 125.42 125.43 125.44 125.44 125.45 125.45 125.46 125.46 125.46 125.47 125.47 125.48 125.73 129.91 126.27 125.49 125.49 125.59 128.53 130.61 130.93 131.14 130.97 131.06 128.01 125.57 125.53 125.54 125.54 125.55 128.23 132.23 142.76 151.62 160.87 171.35 177.57 178.25 178.24 177.26 175.7 173.01 170.4 168.77 168.46 -9999 -9999 -9999
-9999 -9999 175.7 174.84 174.13 173.32 172 171.04 169.75 168.75 167.32 165.26 162.54 161.05 159.1 156.96 155.15 153.97 151.75 150.14 148.59 148.41 147.64 147 146.28 145.73 144.81 144.13 143.25 142.24 142.32 141.18 140.88 140.44 139.98 139.47 139 138.6 138.28 138.16 137.31 136.74 136.33 136.06 135.49 134.99 134.91 134.76 134.41 134.27 134.36 134.11 133.94 133.82 134.39 135.47 136.17 136.48 136.66 135.86 133.97 133.04 132.66 132.07 131.23 130.33 126.88 126.02 127.98 133.47 141.33 139.82 131.3 130.8 131.36 131.33 131.47 131.27 131.29 131.36 131.38 131.5 131.25 131.06 130.68 126.35 125.4 125.42 125.92 125.59 125.42 125.42 125.42 125.43 125.43 125.43 125.44 125.45 125.45 125.46 125.46 125.47 126.75 127.1 125.78 125.49 125.51 128.02 130.61 130.65 130.59 130.69 130.42 130.49 126.39 125.5 125.51 125.52 125.53 126.44 130.93 138.39 148.37 154.08 160.76 166.03 171.53 173.13 172.62 171.58 165.92 158.1 153.17 152.33 152.59 -9999 -9999 -9999
-9999 -9999 175.95 175.12 174.7 173.47 172.24 171.18 169.68 168.53 166.34 164.82 163.3 161.89 159.98 157.73 156.18 154.54 152.62 152.05 151.75 150.16 148.21 147.25 146.59 146.22 145.76 144.79 144.39 144.14 143.16 143.1 142.38 140.96 140.6 139.86 139.32 138.8 138.27 138.05 137.42 136.72 136.22 136 135.75 135.45 135.13 134.99 134.64 134.52 134.42 134.37 134.1 134.2 134.82 135.83 136.68 136.82 136.61 135.3 133.6 132.94 132.49 131.92 130.75 128.86 125.86 126.82 128.86 137.87 140.94 135.13 130.24 131.29 131.48 131.33 131.37 131.33 131.2 131.09 130.97 131 130.9 131.09 129.38 125.5 125.39 125.61 126.08 125.43 125.41 125.41 125.42 125.42 125.42 125.43 125.43 125.43 125.44 125.44 125.45 125.45 126.02 127.1 126.16 125.48 126.68 130.55 130.81 130.55 130.38 130.65 130.54 128.18 125.51 125.49 125.5 125.51 125.97 128.77 133.13 142.92 148.03 150.91 154.05 158.53 160.57 160.82 160.11 158.04 151.43 147.54 150.46 152.91 154.57 -9999 -9999 -9999
-9999 -9999 176.29 175.47 175.13 174.46 173.39 171.93 170.79 169.48 167.18 165.67 164.73 162.99 161.25 158.89 157.65 155.36 153.96 153.73 152.96 151.52 149.87 149.18 148.26 148.04 147.72 146.79 145.4 145.29 144.56 143.49 142.32 141.17 140.43 139.72 139.23 138.53 137.9 137.53 137.23 136.75 136.25 136 135.79 135.59 135.36 135.21 134.69 134.33 134.41 134.38 134.19 134.53 135.07 135.85 136.74 136.64 136.28 134.78 133.58 132.75 132.37 131.56 130 126.91 125.81 127.54 131.13 139.99 139.29 131.12 130.98 131.49 131.48 131.39 131.32 131.08 130.88 130.99 131.14 131.02 131.07 130.94 127.32 125.39 125.48 126.06 125.75 125.4 125.4 125.41 125.41 125.41 125.42 125.42 125.42 125.43 125.43 125.43 125.44 125.45 127.01 127.6 125.6 125.72 129.82 130.84 130.65 130.33 130.45 130.43 129.54 125.65 125.48 125.49 125.49 125.5 127.53 131.82 138.36 139.78 137.22 140.97 145.66 147.84 148.48 148.24 147.71 146.43 145.55 150.51 153.78 157.02 159.42 -9999 -9999 -9999
-9999 -9999 177.05 176.8 176.08 175.28 174.61 173.32 171.63 170.6 169.5 168.45 167 164.99 162.75 160.76 159.1 156.73 155.09 155 153.89 152.71 151.87 151.18 150.15 149.8 149.31 148.45 147.39 146.59 145.53 144.37 143.28 141.52 140.62 139.88 139.71 138.95 138.1 137.64 137.36 136.9 136.54 136.33 136.02 135.78 135.32 134.6 134.09 134.3 134.41 134.03 133.91 134.63 135.36 135.95 136.4 136.25 135.84 134.44 133.44 132.75 132.15 131.08 128.88 126 126.15 127.87 134.55 139.96 135.99 130.08 131.18 131.35 131.46 131.59 131.18 131.04 130.91 131.05 131.11 131.04 131.56 130.13 125.84 125.47 125.79 126.24 125.41 125.39 125.39 125.4 125.4 125.4 125.41 125.41 125.41 125.42 125.42 125.43 125.43 125.56 127.45 126.09 125.45 127.88 130.75 130.79 130.46 130.24 130.4 130.39 126.79 125.47 125.48 125.48 125.49 126.19 130.35 135.61 144.41 142.02 139.68 139.1 138.41 138.68 140.14 141.2 142.49 145.65 150.78 156.2 160.7 165.68 168.08 -9999 -9999 -9999
-9999 -9999 176.54 176.96 175.96 175.13 174.45 173.27 171.93 171 169.63 168.95 167.27 165 163.02 161.48 159.72 157.32 155.58 154.95 153.89 153.11 152.27 151.72 151.42 150.57 149.44 148.89 147.72 147.33 145.66 144.95 143.72 141.42 141.24 140.33 139.37 138.7 138.06 137.76 137.58 137.15 136.54 136.29 135.84 135.5 135.12 134.7 134.63 134.59 134.29 133.91 133.98 135.24 135.72 136.33 136.55 136.23 135.59 134.23 133.26 132.65 131.94 131.08 127.95 125.77 127 128.62 137.33 138.99 132.28 130.42 131.35 131.29 131.51 131.57 131.28 131.07 131.03 130.98 130.98 131.07 131.39 128.58 125.41 125.64 126.1 125.76 125.38 125.38 125.39 125.39 125.39 125.4 125.4 125.41 125.41 125.41 125.41 125.42 125.42 125.89 126.45 125.44 125.96 130.1 130.64 130.63 130.25 130.07 130.42 127.97 125.47 125.46 125.47 125.47 125.49 128.3 134.44 143.84 147.63 148.08 148.71 149.05 148.14 146.28 146.19 148.73 151.35 153.55 156.2 162.58 167.42 171.99 175.51 -9999 -9999 -9999
-9999 -9999 175.27 175.71 175.33 174.38 173.59 172.17 171.85 170.87 168.17 166.81 164.54 162.53 161.09 160.22 158.9 156.28 153.79 152.28 150.25 149.86 149.77 149.12 149.66 147.25 147.1 147.32 147.18 146.64 145.26 144.71 143.27 141.39 140.93 139.95 138.95 138.28 137.87 137.63 137.34 137.08 136.47 135.98 135.41 135.12 134.91 134.81 134.75 134.75 134.64 134.32 134.57 135.48 136 136.67 136.72 136.39 135.37 134.19 133.2 132.56 131.68 130.39 126.7 125.78 127.71 130.15 137.27 136.79 130.36 130.83 131.5 131.56 131.68 131.25 131.04 130.96 130.96 130.91 131.01 131.2 131.08 126.86 125.37 125.42 125.63 125.41 125.38 125.38 125.38 125.39 125.39 125.39 125.4 125.4 125.4 125.41 125.41 125.41 125.42 125.62 125.48 125.51 128.87 130.47 130.62 130.29 129.92 130.15 129.09 125.57 125.45 125.46 125.46 125.46 126.02 132.27 144.39 150.86 153.06 154.43 153.42 153.18 154.76 153.35 151.47 155.87 161.27 163.67 164.25 169.74 174.03 176.47 180.29 -9999 -9999 -9999
-9999 -9999 174.39 174.44 174.3 173.7 173.44 172.55 171.56 170.63 166.87 164.64 162.4 159.9 158.36 157.16 156.03 154.26 151.66 150.18 149.22 149.04 148.03 147.44 146.92 145.53 144.16 145.13 145.26 144.76 144.08 143.61 142.35 141.48 140.17 139.27 138.35 137.97 137.88 137.79 137.29 137.42 136.94 136.24 135.5 134.62 134.41 134.74 134.38 133.8 133.98 134.1 134.92 135.53 136.28 136.79 136.65 136.35 135.22 134.09 133.05 132.41 130.63 128.21 125.77 126.36 128.29 132.09 133.84 132.25 130.71 131.4 131.5 131.46 131.48 131.19 131.15 130.88 130.86 130.88 130.96 131.31 129.83 125.64 125.37 125.39 125.54 125.37 125.37 125.37 125.38 125.38 125.38 125.39 125.39 125.39 125.4 125.4 125.4 125.41 125.41 125.41 125.42 127.49 130.42 130.4 130.4 129.89 129.59 130.11 126.32 125.44 125.44 125.45 125.45 125.48 129.02 141.27 154.14 155.71 158.71 159.58 160.95 161.85 163.36 163.36 157.25 160.02 168.88 172.7 172.85 175.51 179.68 182.25 184.84 -9999 -9999 -9999
-9999 -9999 173.34 173.02 172.98 173.25 173.19 172.62 171.35 170.19 166.86 164.08 160.94 158.04 156.04 154.97 153.97 152.12 150.12 149.18 148.81 148.59 147.07 146.36 145.69 144.92 144.23 143.99 144.48 144.18 143.16 142.71 141.67 140.95 139.22 138.4 138.16 138.21 138.2 138.3 138.12 137.71 136.89 136.26 135.68 134.54 134.47 134.53 133.58 133.73 133.98 133.94 134.77 135.74 136.66 137.01 136.81 136.19 134.78 133.74 132.94 132.09 129.31 126.66 125.73 127.53 128.8 135.17 137.48 131.97 131.07 131.31 131.52 131.5 131.44 131.19 130.92 130.79 130.92 130.95 131.04 131.46 127.86 125.36 125.36 125.37 125.38 125.37 125.37 125.37 125.37 125.37 125.38 125.38 125.38 125.39 125.39 125.39 125.4 125.4 125.4 125.4 126.18 130.28 130.24 130.21 130.24 129.49 130.09 128.42 125.45 125.43 125.43 125.44 125.44 126.57 133.73 153.01 158.36 160.5 164.12 165.48 167.73 169.4 171.06 171.52 165.52 166.64 173.36 176.82 178.54 180.34 183.36 186.2 188.74 -9999 -9999 -9999
-9999 -9999 172.01 172 172.26 172.51 172.14 171.48 170.57 168.34 165.36 161.56 158.58 156.68 154.86 153.62 152.32 149.7 148.22 147.39 146.7 146.4 145.67 145.09 144.17 143.55 143.55 142.47 142.73 142.74 142.04 141.85 141.16 140.19 138.34 138 138.19 138.26 138.28 138.28 138.26 138.19 137.06 136.12 135.48 134.9 134.84 133.73 133.25 133.33 133.36 133.87 134.89 135.89 136.92 137.12 136.7 136.13 134.82 133.64 132.67 131.05 128.98 125.83 126.08 128.32 129.84 136.44 136.26 131.02 130.93 131.22 131.51 131.59 131.46 131.31 130.93 130.97 130.95 130.97 131.37 130.86 126.29 125.35 125.36 125.36 125.36 125.37 125.37 125.37 125.37 125.37 125.37 125.37 125.38 125.38 125.38 125.39 125.39 125.39 125.4 125.42 128.48 130.39 130.09 130.06 129.54 129.4 130.09 126.08 125.42 125.42 125.42 125.43 125.58 130.29 141.61 159.4 160.25 165.66 170.26 172.98 175.16 176.53 177.41 177.06 173.41 174.9 177.62 180.52 182.69 184.45 186.87 190 192.5 -9999 -9999 -9999
-9999 -9999 169.41 170.18 171.59 171.93 171.73 171.17 170 167.22 164.03 159.61 156.75 154.58 152.95 150.72 149.09 147.46 146.41 146.04 144.7 145.3 144.46 143.69 142.98 143.07 142.57 140.61 140.57 140.74 140.85 141.27 140.47 138.81 138.29 138.28 138.25 138.2 138.2 138.19 138.2 138.12 136.6 135.8 135.66 134.99 134.32 133.41 133.14 133.4 133.41 133.63 134.9 136.15 137.08 137.11 136.73 135.94 134.39 133.71 131.94 130.04 127.52 125.69 126.88 127.92 130.98 136.64 133.85 130.75 130.93 131.21 131.37 131.35 131.23 130.99 131.1 131.05 131.09 131.17 131.5 129.11 125.46 125.35 125.35 125.35 125.36 125.36 125.36 125.36 125.36 125.37 125.37 125.37 125.37 125.37 125.38 125.38 125.38 125.39 125.39 126.6 130.35 130.36 130.04 129.9 128.94 129.57 128.08 125.42 125.41 125.41 125.42 125.42 128.21 134.71 152.86 160.65 161.81 170.06 175.54 177.63 179.33 180.68 181.55 181.83 181.13 181.39 182.76 184.49 186.33 188.7 191.26 194.28 197.2 -9999 -9999 -9999
-9999 -9999 166.57 167.65 169.08 169.96 170.05 169.59 168.1 165.64 161.81 158.08 154.76 153.03 150.67 148.08 146.83 145.85 145.64 145.07 145.69 145 143.4 142.42 141.77 142.02 141.34 140.25 140.25 140.3 140.1 140.46 139.59 138.46 138.32 138.33 138.31 138.16 138.11 138.05 137.67 137.1 136.39 135.84 135.11 134.69 134.1 133.54 133.31 133.2 133.4 134.25 135.28 136.37 137.12 137.25 136.82 135.33 134.01 133.35 130.91 129.59 126.13 125.84 127.67 128.18 133.11 136.14 131.53 130.92 131.04 131.01 131.31 131.17 130.9 130.85 130.85 130.88 131.13 131.29 131.22 127.06 125.34 125.34 125.34 125.35 125.35 125.35 125.36 125.36 125.36 125.36 125.36 125.36 125.37 125.37 125.37 125.37 125.38 125.38 125.56 129.11 130.66 130.35 129.89 129.41 128.98 129.52 125.85 125.4 125.4 125.41 125.41 126.38 132.48 140.84 152.77 160.16 163.08 171.89 176.36 178.73 181.2 183 184.28 185.02 185.69 186.22 187.38 188.75 190.32 193.1 196.06 199.24 202.26 -9999 -9999 -9999
-9999 -9999 163.82 165.14 166.18 166.83 166.62 165.8 164.07 161.62 157.68 154.51 151.91 150.35 148.72 147.68 146.07 145.36 144.39 143.31 142.94 143.14 142.21 141.5 141.3 141.06 140.11 139.92 140.01 140 139.32 139.37 139.11 138.54 138.37 138.21 138.17 138.11 138.09 137.46 136.8 136.14 135.62 135.37 135.14 134.85 134.37 133.77 133.22 133.24 133.66 135.07 135.73 136.52 137.19 137.24 136.79 135 133.44 131.95 129.95 128.55 125.7 126.46 127.79 129.99 134.92 134.95 130.52 131.17 131.14 131.05 131.23 130.96 130.6 130.77 130.9 131 131.08 131.51 130.25 125.63 125.33 125.33 125.34 125.34 125.34 125.35 125.35 125.35 125.35 125.36 125.36 125.36 125.36 125.36 125.37 125.37 125.37 125.37 127.18 130.35 130.64 130.27 129.67 129.09 129.36 127.59 125.4 125.39 125.39 125.4 125.57 130.93 142.35 144.19 146.81 156.74 163.65 169.86 174.26 177.64 180.43 183.11 185.21 186.94 188.68 190.35 191.98 193.81 195.36 197.71 200.79 204.61 208.47 -9999 -9999 -9999
-9999 -9999 161.67 162.71 163.44 163.91 163.74 162.68 160.61 157.92 155.38 151.32 150.06 148.16 146.79 146.18 144.97 144.15 143.5 143.07 142.56 142.11 141.5 141.24 141.26 141.05 140.1 140.02 140.01 139.84 138.96 138.7 138.46 139.14 139.25 138.62 138.23 137.96 137.13 136.32 136.04 135.94 135.7 135.33 134.97 134.72 134.36 133.9 133.41 133.31 134.04 135.44 136.02 136.72 137.41 137.36 136.64 134.62 133.02 130.44 129.24 127.69 125.65 127.12 128.22 131.14 134.98 133.12 130.52 131.17 131.42 131.09 130.91 130.84 130.8 130.82 130.87 131.15 131.36 131.56 128.42 125.33 125.33 125.33 125.33 125.33 125.34 125.34 125.34 125.35 125.35 125.35 125.35 125.36 125.36 125.36 125.36 125.36 125.36 125.63 129.33 130.56 130.46 129.96 129.43 129.28 129.26 125.74 125.39 125.39 125.39 125.4 128.26 140.65 155.76 156.03 151.33 150.33 161.73 165.38 167.46 172.29 176.98 180.89 184.38 187.44 190.45 193.18 195.89 198.61 201.02 203.04 206.23 210.99 215.5 -9999 -9999 -9999
-9999 -9999 158.69 159.01 159.45 160.24 160.18 157.23 153.15 152.03 151.61 149.56 148.98 147.69 146.3 145.57 145.11 144.4 143.6 143.57 143.59 142.89 142.19 141.56 141.17 140.91 139.94 139.64 139.64 139.85 140.02 139.9 139.44 138.76 138.35 137.58 137.35 137.1 136.9 136.46 136.1 135.87 135.62 135.31 134.81 134.52 133.99 133.79 133.74 133.77 134.46 135.5 136.21 137.01 137.57 137.5 136.35 134.15 132.25 129.46 128.93 126.92 125.67 128.21 129.25 132.31 134.65 131.37 130.68 131.32 131.47 130.94 130.74 130.82 130.85 130.92 131.17 131.29 131.27 131.25 126.36 125.32 125.32 125.32 125.33 125.33 125.33 125.33 125.34 125.34 125.34 125.34 125.35 125.35 125.36 125.35 125.35 125.36 125.36 127.02 130.21 130.5 130.26 129.53 129.42 129.67 127.58 125.39 125.38 125.38 125.38 126.37 136.82 159.96 165.67 163.01 161.02 153.89 160.82 160.39 158.8 165.55 173.14 178.03 182.76 186.97 191.38 195.1 198.93 202.95 206.32 209.39 212.96 218.36 223.35 -9999 -9999 -9999
-9999 -9999 155.54 156.01 156.35 156.81 155.55 151.69 151.19 150.94 150.57 147.78 146.66 146.44 146.02 145.44 145.14 144.74 143.78 143.77 143.89 143.43 142.67 141.8 141.3 141.41 141.52 141.49 141.31 140.94 140.74 140.61 139.69 138.91 138.4 137.88 137.22 136.89 137.06 136.66 136.35 135.93 135.54 135.07 134.53 133.98 133.55 133.65 133.49 133.97 134.78 135.45 136.35 137.12 137.68 137.56 135.97 133.44 131.13 128.93 128.69 126.39 125.87 128.73 129.38 133.1 133.86 130.35 130.94 131.4 131.24 130.81 130.68 130.69 130.73 130.69 131.14 131.28 131.55 129.92 125.44 125.31 125.31 125.32 125.32 125.32 125.32 125.33 125.33 125.33 125.34 125.34 125.34 125.34 125.35 125.35 125.35 125.35 125.43 129.11 130.41 130.27 130.17 129.27 129.7 129.5 125.75 125.37 125.37 125.38 125.39 129.98 152.58 170.38 171.39 169.36 167.09 162.07 164.67 165.45 163.57 164.54 171.03 176.88 180.82 186.54 191.88 197 202.12 207.07 211.3 215.67 220.24 226.09 231.98 -9999 -9999 -9999
-9999 -9999 152.95 153.4 153.88 154.18 152.43 151.16 151.34 151.3 151.07 147.48 145.07 145.44 145.33 145.03 144.76 144.34 144.26 143.95 143.27 143.18 143.39 143.71 143.78 143.5 142.31 141.1 141.31 141.33 141.3 141.14 139.99 138.97 138.48 138.05 137.63 136.95 136.55 136.61 136.3 136.03 135.45 134.92 134.27 133.75 133.46 133.86 133.57 133.8 134.9 135.53 136.53 137.5 137.77 137.48 135.14 132.11 129.84 128.94 128.44 125.96 126.25 129.03 130.16 133.29 133.02 131.07 131.24 131.37 130.96 130.72 130.7 130.66 130.73 130.84 131.03 131.22 131.59 128.22 125.31 125.31 125.31 125.31 125.31 125.32 125.32 125.32 125.32 125.33 125.33 125.33 125.34 125.34 125.34 125.35 125.35 125.35 126.48 130.18 130.23 130.15 129.66 129.29 129.86 127.78 125.37 125.37 125.37 125.37 126.14 135.87 164.28 173.72 175.69 175.1 172.91 170.21 170.13 170.89 172.08 169.24 170.12 176.29 180.43 185.4 191.62 197.69 203.74 209.95 215.35 220.73 225.97 232.27 238.71 -9999 -9999 -9999
-9999 -9999 149.95 150.47 151.11 151.46 150.79 150.77 151.08 151.41 151.3 148.18 144.99 144.93 144.71 144.51 144.48 144.62 145.16 145.49 145.31 145.39 145.11 144.92 144.64 144.21 143.33 141.23 141.32 141.32 141.07 140.54 139.54 139.11 138.83 138.18 137.58 136.61 135.95 136.1 136.16 135.76 135.24 134.64 134.17 133.73 133.38 133.61 133.76 133.75 134.89 135.5 136.74 137.82 137.9 137.2 134.1 130.49 129.19 128.81 128.17 125.76 126.15 128.41 130.78 133.08 131.59 130.9 131.28 131.25 130.88 130.72 130.67 130.6 130.64 130.88 131.07 131.33 131.31 126.5 125.31 125.31 125.31 125.31 125.31 125.31 125.31 125.32 125.32 125.32 125.32 125.33 125.33 125.33 125.33 125.34 125.34 125.35 128.23 130.19 129.97 130.13 129.16 129.71 129.85 126 125.36 125.36 125.36 125.36 128.12 141.91 166.79 175.17 178.11 178.45 177.5 175.79 174.77 174.29 175.51 174.16 172.1 175.94 180.4 185.65 191.34 198.33 205.73 212.91 219.41 225.24 230.92 236.95 243.29 -9999 -9999 -9999
-9999 -9999 148.46 148.42 148.39 148.22 148.17 149.83 150.09 149.63 148.64 146.61 145.93 145.91 146.1 146.28 146.48 146.5 146.37 146.12 146 146.01 145.74 145.74 145.45 145.12 144.64 143.71 143.19 142.67 142.11 141.69 139.54 139.38 139.13 138.35 137.7 136.72 135.92 135.52 135.58 135.41 135.16 134.59 134.24 133.6 133.38 133.82 133.8 133.64 134.81 135.65 137 137.97 137.99 136.35 132.48 129.15 128.63 127.94 127.95 125.64 126.1 128.34 131.53 132.69 130.66 131.15 131.05 130.93 130.6 130.57 130.63 130.66 130.7 130.88 131.11 131.28 130.01 125.48 125.3 125.3 125.31 125.31 125.31 125.31 125.31 125.31 125.32 125.32 125.32 125.32 125.33 125.33 125.33 125.33 125.33 125.61 129.66 130.09 129.8 129.48 129.38 130.05 128.37 125.37 125.35 125.36 125.36 125.37 130 147.49 168.39 175.53 178.44 179.68 179.91 179.65 178.95 177.61 179.78 177.32 178.51 180.52 183.31 188.33 194.07 201.86 209.93 218.08 226.09 232.23 237.2 242.44 248.12 -9999 -9999 -9999
-9999 -9999 149.27 148.46 147.99 147.83 147.6 147.65 147.38 147.1 147.23 147.49 147.54 147.31 147.09 146.84 146.42 146.85 146.69 146.79 146.78 147.07 147.34 147.13 146.62 146.45 145.9 145.31 144.64 143.95 143.28 142.68 140.21 139.28 138.82 138.33 137.75 136.77 135.93 135.56 135.14 135.01 134.68 134.43 134.22 133.74 133.54 133.97 133.78 133.94 134.9 135.95 137.14 138.23 138.13 134.91 130.9 128.69 128.29 127.84 127.62 125.57 126.29 129.12 132.23 132.24 130.67 130.99 130.61 130.57 130.56 130.57 130.55 130.44 130.38 131.07 131.13 131.33 128.14 125.31 125.3 125.3 125.3 125.3 125.3 125.31 125.31 125.31 125.31 125.32 125.32 125.32 125.32 125.32 125.33 125.33 125.33 126.92 130.21 129.94 129.53 129.02 129.69 130.24 126.69 125.35 125.35 125.35 125.35 125.45 131.5 150.79 168.82 174.85 177.46 179.45 180.82 181.64 181.61 181.05 182.24 181.71 183.18 185 188.46 194.63 201.92 209.21 218.88 227.32 235.56 240.33 244.69 250.35 255.35 -9999 -9999 -9999
-9999 -9999 151.49 150.54 149.93 149.88 149.7 149.2 148.8 148.64 148.42 148.21 148.1 148.04 148.07 148.21 148.36 148.43 148.72 148.59 148 147.31 147.48 148.4 147.67 147.54 147.16 146 145.45 145.08 144.99 144.37 141.03 139.13 138.74 138.32 137.75 136.92 136.06 135.59 135.22 134.72 134.54 134.46 134.35 133.99 133.77 133.99 133.57 134.38 135.21 136.11 137.39 138.64 138.26 134.27 130.05 128.49 128.12 128.06 127.16 125.55 126.67 130.02 132.48 131.52 130.73 130.86 130.38 130.56 130.58 130.72 130.43 130.15 130.27 131 131.09 131.11 126.61 125.29 125.29 125.3 125.3 125.3 125.3 125.3 125.3 125.31 125.31 125.31 125.31 125.32 125.32 125.32 125.32 125.32 125.36 128.8 129.84 129.48 128.96 129.24 129.93 130.03 125.75 125.34 125.34 125.35 125.35 125.73 134.13 156.57 168.53 171.4 173.4 176.39 180 181.96 183.09 184.38 183.85 188.1 187.79 191.76 198.12 201.4 207.57 219.42 231.4 238.9 242.8 246.45 252.48 257.84 258.72 -9999 -9999 -9999
-9999 -9999 154.25 153.15 151.83 151.38 150.8 150.21 149.94 149.82 149.87 149.9 150.07 149.97 149.97 149.88 150.35 150.15 150.74 150.67 149.63 150.21 149.18 148.78 148.68 147.96 147.85 146.61 145.61 144.95 145.17 144.95 141.99 139.02 138.56 138.23 137.91 136.96 136.24 135.72 135.41 134.93 134.41 134.32 134.2 133.98 133.93 133.79 133.54 134.53 135.28 136.26 137.61 138.39 137.73 135.29 129.5 127.16 126.44 127.88 126.6 125.54 127.33 131.11 132.49 130.85 130.66 130.56 130.35 130.61 130.62 130.78 130.24 130.14 130.53 131.16 131.26 130.02 125.53 125.29 125.29 125.29 125.29 125.29 125.3 125.3 125.3 125.3 125.3 125.3 125.31 125.31 125.31 125.32 125.32 125.32 125.88 129.84 129.58 129.03 128.88 129.8 130.19 129.32 125.43 125.33 125.34 125.34 125.34 126.35 136.5 156.9 162.97 164.7 167.57 173.1 177.8 180.84 182.94 185.01 185.22 191.07 193.52 198.89 205.5 214.52 219.75 228.71 238.61 243.02 246.35 250.33 255.58 257.56 256.77 -9999 -9999 -9999
-9999 -9999 156.05 155.14 153.91 153.25 152.58 152.28 152.07 152.23 152.73 152.72 152.55 152.07 151.82 151.34 152.27 153.07 153.26 152.83 151.52 151.95 151.76 149.87 149.06 148.03 148 147.33 146.29 145.27 144.31 143.63 141.82 139.11 138.44 138.24 138.07 136.97 136.32 135.78 135.37 135.03 134.63 134.06 134.03 133.97 133.98 133.75 133.91 134.71 135.65 136.44 137.65 137.65 135.11 131.12 128.68 128.09 127.45 127.18 125.9 125.57 128.33 131.94 132.19 130.51 130.64 130.38 130.44 130.63 130.69 130.53 130 130.3 130.82 131.17 131.06 128.09 125.28 125.28 125.28 125.28 125.29 125.29 125.29 125.29 125.3 125.3 125.3 125.3 125.3 125.3 125.31 125.31 125.31 125.31 127.03 129.87 129.09 128.76 129.47 129.95 130.19 128.75 125.35 125.33 125.33 125.33 125.34 127.36 138.22 155.14 156.99 157.13 163.58 170.16 175.35 179.05 181.66 181.91 184.1 189.29 197.66 203.54 210.62 220.71 229.95 236.57 240.38 243.05 246.11 248.73 251.46 251.59 251.24 -9999 -9999 -9999
-9999 -9999 157.98 157.06 155.5 154.33 154.02 154.12 154.49 154.51 155.19 155.85 155.98 155.3 154.38 153.95 153.57 153.18 153.29 153.1 152.3 152.16 152.02 151.01 149.38 148.12 147.79 147.17 146.73 145.97 143.34 142.39 140.9 138.94 138.35 138.14 137.79 136.97 136.22 135.57 135.22 134.85 134.53 133.82 133.95 133.98 133.87 133.59 133.89 134.67 135.77 136.82 137.17 136.55 131.97 129.23 128.2 128.56 128.72 127.81 125.61 125.96 129.46 132.34 131.69 130.67 130.77 130.49 130.6 130.58 130.42 130.04 130.06 130.74 130.94 131.16 130.79 126.5 125.28 125.28 125.28 125.28 125.28 125.28 125.28 125.29 125.29 125.29 125.29 125.3 125.3 125.3 125.3 125.3 125.3 125.31 128.43 129.37 128.54 129.1 129.6 129.51 130.24 127.97 125.32 125.32 125.33 125.33 125.33 128.64 138.44 145.62 146.52 149.96 156.57 163.62 168.74 173.55 176.91 175.1 179.96 185.65 193.73 205.19 214.8 223.9 232.7 237.06 238.58 240.86 242.85 244.54 245.6 246.1 247.26 -9999 -9999 -9999
-9999 -9999 159.81 158.88 157.04 155.69 155.75 156.9 157.94 157.64 157.77 158.43 158.56 158.44 157.69 157.13 155.18 153.11 153.3 153.15 152.57 152.37 152.77 152.58 149.71 148.16 147.58 146.92 146.28 145.18 142.99 141.67 140.3 138.73 138.18 137.71 137.31 136.85 136.17 135.36 134.98 134.62 134.22 133.63 133.77 133.92 133.68 133.49 133.84 134.55 135.74 136.57 136.76 134.31 130.07 128.52 128.24 129.37 128.74 127.31 125.51 127.03 130.67 132.52 131.13 130.65 130.77 130.65 130.63 130.41 130.09 129.96 130.34 130.93 130.84 131.24 130.1 125.53 125.27 125.27 125.28 125.28 125.28 125.28 125.28 125.28 125.28 125.28 125.29 125.29 125.29 125.29 125.3 125.3 125.3 125.58 129.34 128.44 128.64 129.23 129.15 129.84 130.22 126.57 125.32 125.32 125.32 125.32 125.37 130.21 135.18 140.68 142.85 144.06 146.9 154.07 159.35 164.55 167.08 167.63 173.83 181.96 187.99 201.24 215.27 227.59 233.73 234.14 234.42 236.14 237.75 239.92 242.05 243.83 245.6 -9999 -9999 -9999
-9999 -9999 161.17 160.92 158.58 157.53 158.54 160.48 161.41 160.64 160.07 160.38 160.68 160.95 160.86 160.52 157.63 153.26 153.28 153.2 152.62 154.37 154.19 153.67 150.74 148.42 147.8 146.14 143.83 143.61 142.95 140.56 139.32 138.61 137.95 137.35 136.66 135.65 136.01 135.48 135.3 135.17 134.66 133.48 133.48 133.72 133.39 133.53 133.98 135.05 136 136.59 136.08 131.77 128.99 128.19 128.2 128.31 127.98 126.28 125.63 128.71 131.75 132.38 130.6 130.62 130.76 130.7 130.38 130.01 129.86 130.07 130.77 130.69 130.78 131.03 128.68 125.28 125.27 125.27 125.27 125.27 125.28 125.28 125.28 125.28 125.28 125.28 125.28 125.28 125.29 125.29 125.29 125.29 125.3 126.84 128.55 128.58 128.79 129 129.94 130.22 130.08 125.52 125.31 125.31 125.32 125.32 125.51 132.38 141.61 146.04 149.42 151.51 150.59 148.68 151.21 155.26 158.02 159.94 166.17 175.72 184.68 194.54 212.09 227.01 231.09 228.74 228.68 230 232.27 235.27 239.4 243.26 245.34 -9999 -9999 -9999
-9999 -9999 162.96 162.32 160.46 160.06 161.6 163.56 164.04 163.31 162.56 162.48 162.43 163.18 163.75 163.53 160.12 154.28 153.63 153.57 153.62 154.87 154.31 153.83 151.9 148.74 147.02 145.61 143.55 143.46 143.06 140.2 139.25 138.69 138.05 137.33 136.34 135.07 135.49 135.53 135.5 135.34 134.68 133.25 133.35 133.51 133.73 133.89 134.16 135.43 136.35 136.32 134.16 129.87 128.61 128.04 128.1 127.93 127.26 125.53 126.84 129.91 132.35 131.79 130.47 130.67 130.74 130.37 129.92 129.92 130.05 130.44 130.74 130.57 130.71 131.01 127.3 125.26 125.26 125.27 125.27 125.27 125.27 125.27 125.27 125.27 125.27 125.28 125.28 125.28 125.28 125.28 125.29 125.29 125.3 127.76 128.39 128.71 129.25 129.93 130.03 130.33 129.05 125.31 125.31 125.31 125.31 125.31 126.05 134.98 145.48 151.14 157.33 160.87 160.17 157.12 156.31 157.24 156.71 157.16 159.19 167.6 179.85 189.98 206.12 220.76 225.8 223.57 222.76 223.12 225.51 229.71 235.3 240.98 243.77 -9999 -9999 -9999
-9999 -9999 164.56 163.86 162.89 162.62 163.49 165.04 165.75 165.18 164.75 164.63 164.75 165.23 165.84 165.6 163.33 159.52 158.8 158.13 157.35 155.69 154.39 153.95 152.59 148.58 146.91 145.33 143.61 143.09 142.53 140.67 139.93 139.42 138.7 137.81 136.55 135.56 134.98 134.59 134.25 133.81 133.25 133.28 133.57 133.96 134.06 133.97 134.63 135.95 136.48 135.82 132.33 128.95 128.2 127.92 127.88 127.86 125.82 126.05 128.84 130.99 132.54 130.83 130.16 130.14 129.99 129.77 129.75 130.18 130.71 130.84 130.84 130.51 131.19 130.69 126.22 125.26 125.26 125.26 125.26 125.26 125.27 125.27 125.27 125.27 125.27 125.27 125.27 125.28 125.28 125.28 125.28 125.28 125.53 128.51 128.67 128.88 129.87 129.83 130.03 130.51 128.35 125.3 125.3 125.3 125.3 125.31 127.18 138.8 149.72 156.5 162.62 166.74 167.78 165.02 167.12 168.69 167.41 163.64 161.99 162.78 171.87 183.54 195.89 207.1 214.46 217.42 215.22 212.5 215.34 220.63 226.61 236.35 241.04 -9999 -9999 -9999
-9999 -9999 166.3 165.82 165 164.92 165.61 166.33 166.95 166.98 166.53 166.43 166.7 167.2 167.09 166.81 165.74 164 162.25 160.73 158.91 156.75 154.67 154 152.66 149.71 147.9 146.24 144.53 142.75 141.88 141.09 140.89 139.92 139.11 138.16 137 136.1 135.38 135.1 135 134.75 133.21 133.45 133.76 133.99 133.73 134.25 135.45 136.41 135.87 134.86 132.41 128.44 127.77 127.8 127.91 126.41 125.58 128.22 129.56 131.98 132.17 129.68 129.42 129.48 129.46 129.51 129.76 130.36 130.76 130.94 130.81 130.53 131.09 129.98 125.55 125.26 125.26 125.26 125.26 125.26 125.26 125.26 125.26 125.27 125.27 125.27 125.27 125.27 125.27 125.27 125.28 125.28 126.17 128.79 128.8 129.79 129.74 129.7 130.19 130.42 127.93 125.3 125.3 125.3 125.3 125.3 128.83 140.91 152.48 160.32 166.46 171.46 173.33 173.28 174.39 177.02 177.68 172.84 167.21 165.93 166.85 178.6 184.17 189.61 195.42 199.29 200.82 201.72 204.82 212.65 224.48 234.68 238.29 -9999 -9999 -9999
-9999 -9999 168.26 167.67 167.16 166.9 167.35 167.55 168.15 168.45 168.48 168.47 168.79 169.22 168.66 167.71 166.53 165.05 163.54 161.84 159.89 158.08 156.46 154.69 152.52 150.65 149.58 147.21 145.26 143.83 142.78 141.69 140.86 139.69 138.99 138.25 137.36 136.3 135.63 134.95 134.9 134.58 133.05 133.54 133.92 133.99 133.8 134.66 135.94 136.48 135.09 131.53 128.96 127.81 127.67 127.74 126.66 125.48 127.41 129.3 130.39 132.5 131.2 129.26 129.49 129.61 129.6 129.73 129.96 130.21 130.52 130.62 130.12 130.7 130.99 128.93 125.28 125.25 125.25 125.25 125.25 125.26 125.26 125.26 125.26 125.26 125.26 125.26 125.27 125.27 125.27 125.27 125.27 125.27 126.57 128.81 129.71 129.73 129.52 129.77 130.3 130.33 127.21 125.29 125.29 125.29 125.3 125.31 130.6 147.06 153.03 160.48 167.72 174.38 177.71 178.64 179.05 180.97 182.86 181.26 174.94 170.94 169.86 175.71 182.61 180.02 182.32 186.41 190.61 195.93 205.12 220.99 230.49 235.36 237.86 -9999 -9999 -9999
-9999 -9999 170.71 169.71 169.2 169.18 169.06 168.86 169.3 169.9 170.33 170.44 170.69 170.7 170.26 169.08 167.4 165.33 163.62 161.69 159.86 158.32 157.05 155.39 153.16 151.16 150.2 147.95 145.44 144.23 142.95 140.91 139.89 139.85 139.82 139.37 138.27 135.84 134.98 134.42 133.96 133.67 133.02 133.71 134.02 133.87 134.02 135.12 136.16 135.76 133.35 129.56 128.49 128.38 127.63 126.38 125.47 127 129.34 129.45 131.58 132.47 130.2 129.21 129.26 129.44 129.72 129.94 130.16 130.26 130.13 129.91 129.98 130.86 131 127.72 125.24 125.24 125.25 125.25 125.25 125.25 125.25 125.25 125.25 125.25 125.26 125.26 125.26 125.26 125.26 125.26 125.3 125.55 126.25 129.24 129.71 129.43 129.46 129.88 130.26 130.11 126.28 125.29 125.29 125.29 125.29 125.39 132.56 153.3 159.65 160.79 167.03 173.21 178.65 182.31 183.46 184.47 186.06 186.04 184.01 177.22 174.52 176.58 185.09 182.58 185.48 189.99 195.21 203.46 216.44 228.12 233 236.38 238.24 -9999 -9999 -9999
-9999 -9999 172.67 171.84 171.35 171.42 171.13 170.48 170.68 171.68 172.31 172.64 172.76 172.17 171.42 169.97 168.06 165.79 163.93 161.47 159.55 157.96 156.76 155.18 153.58 151.98 150.69 148.76 146.02 144 141.11 139.74 139.88 139.95 139.98 139.5 138.29 135.9 134.71 134.05 133.74 133.33 132.96 133.85 134.06 133.98 134.56 135.56 136.01 135.01 131.54 128.35 128.37 127.78 125.92 125.52 127.15 128.98 129.16 129.89 132.32 131.84 129.93 129.31 129.06 129.39 129.62 129.59 129.35 129.23 129.52 129.7 130.02 130.84 130.62 126.46 125.24 125.24 125.24 125.24 125.24 125.25 125.25 125.25 125.25 125.25 125.25 125.25 125.25 125.25 125.25 125.25 125.59 126.29 125.73 129.52 129.51 129.32 129.4 129.92 130.1 129.42 125.41 125.28 125.28 125.28 125.28 125.67 134.68 156.28 163.46 166.36 169.18 174.09 178.95 183.95 186.57 188.13 189.67 190.23 189.25 184.26 180.58 184.9 188.03 191.02 195.33 199.92 205.84 214.18 223.16 229.15 233.22 235.94 237.12 -9999 -9999 -9999
-9999 -9999 174.7 174.12 173.61 173.83 173.9 172.79 172.87 173.7 174.11 174.66 174.55 173.55 172.53 170.62 168.6 166.69 164.5 161.9 160.02 158.8 157.39 156.07 154.42 152.85 151.13 149.37 146.23 142.78 139.96 139.57 139.57 139.84 139.71 139.14 137.7 135.75 134.55 133.59 133.03 132.69 133.11 134.03 134.19 134.44 135 135.79 135.45 133.58 129.25 127.5 126.96 125.6 125.65 128.04 129.06 128.92 129.29 130.78 132.49 130.72 129.33 129.04 128.86 128.82 128.83 129.02 129.1 129.56 130.18 130.45 130.66 131.03 129.73 125.53 125.24 125.24 125.24 125.24 125.24 125.24 125.24 125.24 125.25 125.25 125.25 125.25 125.25 125.25 125.25 125.25 126.14 126.76 125.88 129.73 129.45 129.27 129.66 129.95 130.19 128.59 125.28 125.28 125.28 125.28 125.28 126.56 137.24 159.68 165.83 170.97 173.94 177.12 181.92 186.07 188.95 191.24 193.09 194.39 194.9 193.91 190.42 194.37 192.93 195.95 201.8 206.72 212.99 218.84 223.89 228.37 231.51 233.82 234.86 -9999 -9999 -9999
-9999 -9999 176.76 176.19 175.99 176.62 176.75 175.25 175.27 175.84 176.76 177.28 176.4 174.75 173.34 171.25 169.63 167.71 165.23 163.08 161.48 160.02 158.4 156.95 155.01 153.08 150.64 149.4 146.09 142.18 139.89 139.82 139.55 139.04 138.34 137.53 136.66 135 133.41 132.6 133.04 132.81 133.19 133.63 134.36 134.89 135.24 135.74 134.45 130.08 128.18 126.64 125.51 125.79 128.88 129.29 128.72 129.29 129.77 131.79 132.25 128.68 128.25 129.08 129.36 129.48 129.73 130.2 130.44 130.88 131.3 131.46 131.46 131.18 128.33 125.24 125.23 125.23 125.23 125.24 125.24 125.24 125.24 125.24 125.24 125.24 125.24 125.25 125.25 125.25 125.25 125.32 126.9 126.68 126.89 129.81 129.49 129.33 129.8 129.97 130.35 127.73 125.27 125.27 125.27 125.27 125.27 127.8 140.06 161.48 167.91 174.77 178.34 180.47 184.21 188.56 191.67 193.81 195.94 197.7 198.84 199.33 198.38 198.97 196.55 197 204.35 209.47 215.15 220.4 224.51 227.13 229.63 231.51 232.38 -9999 -9999 -9999
-9999 -9999 178.44 177.95 178.16 179.16 179.43 178.14 178.15 178.26 179.45 179.62 178.31 175.99 174.76 172.78 171.16 168.74 166.46 164.79 162.96 160.92 159.21 157.08 154.72 152.26 149.99 148.74 146.07 143.47 141.8 140.78 140.01 139.78 138.52 137.53 136.39 134.09 133.03 132.45 133.04 132.68 133.02 133.26 133.97 134.8 135.1 134.96 134.06 130.74 127.35 125.56 125.57 128.27 129.66 128.83 128.74 129.68 130.25 132.4 131.28 127.09 126.64 126.89 127.69 128.73 130.14 131.26 131.5 131.43 131.54 131.47 131.51 131.1 126.98 125.23 125.23 125.23 125.23 125.23 125.23 125.23 125.23 125.23 125.24 125.24 125.24 125.24 125.24 125.24 125.25 126.01 128.92 125.88 128.36 129.69 129.36 129.3 129.6 130.01 130.43 126.86 125.27 125.27 125.27 125.27 125.27 129.2 142.62 158.68 166.78 174.08 179.17 182.92 186.82 190.87 193.97 196.29 199.05 201.29 202.52 203.19 202.91 201.83 199.1 197.53 205.36 210.22 215.89 221.18 224.26 226.17 227.93 229.09 229.17 -9999 -9999 -9999
-9999 -9999 179.63 179.57 180.02 181.13 181.42 180.72 180.8 180.66 181.26 180.84 179.23 177.12 175.81 173.91 171.78 169.47 167.17 165.67 163.65 161.52 158.95 156.25 153.25 150.7 149.07 147.84 145.3 143.81 142.45 140.57 140.17 140.16 138.9 137.3 136.2 133.88 132.7 132.37 132.38 132.46 132.63 133.08 134.53 134.85 134.91 134.15 133.62 131.21 125.97 125.4 127.34 129.51 129.54 128.41 129.05 129.71 131.24 132.49 129.34 126.15 125.65 126.06 125.78 125.56 125.94 127.24 128.97 130.4 131.21 131.34 131.37 130.6 125.99 125.22 125.22 125.23 125.23 125.23 125.23 125.23 125.23 125.23 125.23 125.23 125.23 125.23 125.24 125.24 125.24 127.3 128.32 125.75 129.6 129.52 129.26 129.13 129.7 130.14 130.25 125.97 125.26 125.26 125.26 125.26 125.3 130.92 150.8 160.46 163.99 171.8 178.6 184.86 190.34 194.16 197.42 200.58 204.15 207.35 209.23 210.02 208.55 205.36 202.25 198.14 205.41 210.48 216.35 220.8 223.73 225.13 225.56 224.72 223.28 -9999 -9999 -9999
-9999 -9999 180.36 180.66 181.27 182.03 181.94 181.71 181.7 182.02 182.31 181.45 180.16 178.13 175.77 173.73 172.07 169.57 167.24 165.5 163.54 161.09 157.33 154.62 151.97 149.63 149.07 147.53 144.09 142.18 141.12 140.23 140.09 140.18 139.22 136.76 135.39 133.24 132.17 131.88 131.69 132.32 132.53 133.66 135 134.81 134.49 133.69 132.82 127.9 125.38 126.28 128.72 129.8 129.03 128.19 129.16 129.93 132.1 132.01 127.45 125.69 125.47 125.55 125.47 125.47 125.47 125.74 126.39 127.58 130.58 131.16 131.29 129.85 125.48 125.22 125.22 125.22 125.22 125.22 125.22 125.22 125.23 125.23 125.23 125.23 125.23 125.23 125.23 125.23 125.24 128.6 127 127.21 129.52 129.31 129.17 129.09 129.85 130.27 129.82 125.52 125.26 125.26 125.25 125.25 125.56 134.68 158.66 167.45 170.86 173.91 179.9 186.94 193.34 198.46 202.57 206.67 210.66 214.13 215.58 215.7 213.8 208.83 202.73 198.4 204.4 210.02 215.59 219.59 221.61 222.42 221.95 220.21 218.31 -9999 -9999 -9999
-9999 -9999 180.83 181.59 181.92 181.82 181.54 181.69 182.18 182.64 182.64 181.72 180.67 178.72 175.66 173.84 171.72 168.77 166.64 164.58 162.77 159.23 155.16 152.84 151.82 149.7 148.48 146.51 141.82 141.24 140.67 139.96 139.88 138.84 137.08 135.85 134.61 132.75 132 131.82 131.5 132.54 133.4 134.79 134.88 134.55 133.63 131.89 130.58 126.1 125.41 127.78 129.09 129.53 128.19 128.09 129.64 130.56 132.51 130.67 126.31 125.49 125.47 125.62 125.48 125.47 125.47 125.49 126.71 128.12 131.02 131.2 131.1 128.95 125.25 125.21 125.21 125.21 125.22 125.22 125.22 125.22 125.22 125.22 125.22 125.22 125.23 125.23 125.23 125.23 125.62 129.87 126.47 128 129.1 129.24 129.1 128.92 129.91 130.39 129.26 125.37 125.25 125.25 125.25 125.25 126.37 139.69 163.94 171.99 177.29 181.66 186.27 192.2 197.69 203.15 207.99 212.33 215.66 217.67 218.68 219.65 217.68 210.2 201.15 197.75 201.8 208.3 213.92 217.22 217.71 216.85 215.24 213.73 212.19 -9999 -9999 -9999
-9999 -9999 181.23 181.68 181.7 181.53 181.43 181.57 182.37 182.94 182.54 181.37 180.62 178.92 176.18 173.89 171.28 167.95 165.42 163.21 160.67 157.11 153.77 152.27 151.08 149.28 147.49 145.41 142.62 141.71 141.06 140.12 139.54 138.54 137.28 136.17 134.24 132.6 131.98 131.8 131.63 132.66 133.53 134.03 133.73 133.29 132.05 129.12 128.49 125.43 125.96 128.22 129.27 129.09 127.73 128.74 129.85 131.57 132.41 128.55 125.8 125.47 125.47 125.61 125.54 125.47 125.47 125.54 127.33 129.13 131.04 131.28 130.79 128.08 125.21 125.21 125.21 125.21 125.21 125.21 125.21 125.21 125.22 125.22 125.22 125.22 125.22 125.22 125.22 125.22 127.02 130.01 126.3 128.22 129.04 129.28 129.03 128.92 130.05 130.38 128.44 125.26 125.25 125.25 125.25 125.25 128.01 144.85 164.81 173.99 181.92 187.89 192.26 198.24 204.5 209.18 213.27 216.92 219.12 220.45 221.91 223.42 220.58 209.75 199.54 196.17 197.84 203.87 208.37 209.93 210.2 210.03 208.67 206.51 204.47 -9999 -9999 -9999
-9999 -9999 181.3 181.36 181.45 181.51 181.57 181.71 182.57 183.22 182.14 181.07 179.93 178.38 176.39 174.2 171.01 167 164.16 161.1 157.95 156.01 153.6 152 150.13 148.14 146.22 144.64 143.36 141.99 141.3 140.37 139.1 137.86 136.76 135.33 133.63 132.69 132.08 131.84 131.63 132.51 132.71 133.04 133.04 132.51 130.91 129.28 128.06 125.37 126.38 128.3 129.24 128.58 127.89 129.55 130.03 132.3 131.08 126.54 125.6 125.47 125.47 125.78 125.58 125.47 125.47 126.09 127.68 129.51 130.91 130.94 130.51 127.11 125.21 125.21 125.21 125.21 125.21 125.21 125.21 125.21 125.21 125.21 125.21 125.21 125.21 125.22 125.22 125.22 128.08 129.78 125.89 128.22 129.13 129.28 128.95 128.96 129.89 130.11 127.33 125.24 125.24 125.24 125.24 125.27 130.79 151.73 166.99 173.37 183.19 192.69 199.78 205.65 211.52 216.29 219.21 221.84 224.1 226.12 226.96 226.29 220.46 209.71 199.16 194.07 193.65 198.17 201.32 202.94 203.26 202.44 200.81 198.24 195.98 -9999 -9999 -9999
-9999 180.86 181.01 181.26 181.38 181.62 181.73 181.86 182.89 183.4 181.89 180.86 179.68 177.88 175.6 173.65 169.43 165.27 161.86 158.77 156.9 154.98 152.64 151.11 149.4 147.52 145.59 144.44 142.87 141.12 140.62 139.82 137.97 136.78 135.67 134.6 133.52 132.83 132.2 131.73 130.84 131.22 130.63 130.56 131.99 130.69 128.86 127.81 127.37 125.49 126.15 128.32 129.05 128.05 128.66 129.47 130.97 132.5 128.61 126.06 125.48 125.47 125.47 126.09 125.55 125.47 125.48 126.85 127.86 129.84 131.05 131.05 130.12 126.24 125.2 125.2 125.2 125.2 125.2 125.21 125.21 125.21 125.21 125.21 125.21 125.21 125.21 125.21 125.21 125.3 129.03 129.85 126.06 128.03 129.09 129.29 128.89 129 129.97 129.92 126.07 125.23 125.23 125.23 125.23 126 135.21 158.92 178.95 184.7 188.93 199.16 208.03 214.07 219.72 224.7 228.17 230.58 232.22 232.17 229.42 223.55 214.74 206.28 197.17 191.3 189.78 193.4 196.2 197.07 196.93 195.29 193.15 190.06 187.46 -9999 -9999 -9999
-9999 180.9 181 181.19 181.35 181.65 181.94 181.97 182.76 183.01 181.89 180.83 179.23 176.79 174.77 171.53 166.58 163.25 160.63 158.04 156.73 154.59 152.36 150.44 148.51 147.13 145.61 144.4 142.83 141.44 140.28 138.97 137.7 136.75 135.76 134.46 133.47 132.95 132.3 132.33 132.3 131.08 130.95 130.72 131.7 128.43 128.53 128.43 127.83 125.96 125.73 128.28 128.44 127.94 129.17 129.71 132.33 132.1 126.79 125.85 125.47 125.47 125.48 126.71 125.79 125.47 125.69 127.67 128.21 130.49 130.96 130.87 129.3 125.45 125.2 125.2 125.2 125.2 125.2 125.2 125.2 125.2 125.2 125.2 125.2 125.2 125.21 125.21 125.21 125.8 129.81 129.95 126.72 127.24 129.15 129.34 128.67 129 129.89 128.73 125.26 125.23 125.23 125.23 125.23 128.31 139.97 164.73 185.93 195.9 203.06 210.61 218.74 224.95 229.81 232.99 234.51 234.8 233.69 231.41 227.16 219.92 212.93 206.15 195.77 188.15 184.62 188.47 191.82 191.19 188.44 186.15 184.62 182.73 -9999 -9999 -9999 -9999
-9999 180.74 181.01 181.21 181.41 181.61 181.94 182.11 182.32 182.22 181.25 179.75 177.93 175.49 172.84 168.81 165.06 162.29 159.59 157.51 155.99 153.94 152.24 150.36 148.61 147.2 146.19 145.03 143.4 141.96 140.51 138.84 137.59 136.55 135.37 134.27 133.5 133.01 132.45 132.85 133.24 133.38 133 132.64 130.71 128.64 129.01 128.48 127.77 125.81 125.87 128.19 128.07 128.58 129.62 131.21 133.11 130.6 126.21 125.55 125.47 125.47 125.49 126.29 126.18 125.84 126.38 127.73 129.01 130.72 130.89 130.72 128.42 125.23 125.19 125.19 125.19 125.2 125.2 125.2 125.2 125.2 125.2 125.2 125.2 125.2 125.2 125.2 125.2 126.85 129.86 129.81 128.19 125.87 129.16 129.15 128.47 128.99 129.66 127.38 125.22 125.22 125.22 125.22 125.36 131.13 146.92 173.66 192.32 206.38 217.19 225.19 231.15 234.33 235.98 236.57 236.66 235.55 232.68 228.41 222.51 216.17 209.66 203.08 191.75 184.26 178.89 182.06 185.02 182.82 180.42 179.56 179.27 178.46 -9999 -9999 -9999 -9999
-9999 180.31 180.75 181.1 181.29 181.41 181.78 181.92 181.54 181.17 180.1 178.22 176.27 173.82 170.73 167.51 164.24 161.34 158.99 156.86 155.28 153.76 152.04 150.41 148.56 147.24 146.19 144.88 143.39 142.14 140.71 139.03 137.7 136.66 135.58 134.44 133.66 133.1 132.72 132.91 133.1 133.37 133.11 132.56 129.61 128.72 128.95 128.43 127.8 125.77 125.83 128 128.2 129.24 130.35 133.23 133.61 128.41 125.65 125.47 125.47 125.47 125.47 125.48 125.53 126.1 126.97 127.98 129.35 131.33 131.03 130.44 127.11 125.19 125.19 125.19 125.19 125.19 125.19 125.19 125.19 125.19 125.19 125.19 125.2 125.2 125.2 125.2 125.21 128.59 129.89 129.5 129.65 125.78 127.69 129.16 128.45 129.02 129.65 125.99 125.22 125.22 125.21 125.22 126.99 135.17 155.3 182.67 199.48 214.86 229.79 235.58 237.55 238.76 239.04 238.22 235.49 230.22 225.55 220.06 213.25 207.45 202.17 196.38 187.34 180.7 173.34 176.37 176.68 175.25 174.32 174.11 174.25 174.25 -9999 -9999 -9999 -9999
-9999 179.91 180.53 181.2 181.46 181.68 181.93 181.88 181.28 180.25 178.73 176.29 174.14 171.83 169.21 166.22 163.34 160.74 159.09 156.84 154.75 153.37 151.8 150.15 148.37 146.9 145.9 144.44 142.89 141.53 140.41 138.94 137.66 136.46 135.75 135.21 134.82 134.01 132.96 132.74 132.91 133.2 132.86 132.38 129.14 128.76 128.9 128.32 127.65 125.7 125.79 127.97 128.56 129.63 132.15 134.57 133.38 126.47 125.47 125.47 125.47 125.47 125.47 125.47 125.47 125.63 126.29 127.69 129.42 131.63 130.96 129.73 126.16 125.18 125.18 125.18 125.19 125.19 125.19 125.19 125.19 125.19 125.19 125.19 125.19 125.19 125.19 125.19 125.47 129.93 129.76 129.28 129.82 128.12 125.73 128.72 128.5 128.97 128.62 125.24 125.21 125.21 125.21 125.24 129.82 141.13 165.61 194.34 214 225.56 236.56 239.5 239.75 239.96 237.28 231.65 224.88 220.24 216.76 212.24 206.17 199.9 194.97 189.66 183.61 177.38 169.45 171.05 170.99 170.21 169.47 169.09 168.79 168.7 -9999 -9999 -9999 -9999
-9999 179.67 180.15 181.07 181.25 181.74 182.09 182.16 181.34 179.47 176.99 174.98 173.18 170.96 168.73 165.83 162.56 160.62 159.22 157.12 155.11 153.56 152.21 150.58 148.54 146.73 145.31 143.74 142.22 140.94 139.77 138.9 137.78 136.84 135.71 134.77 134.2 134.39 134.61 133.03 133.24 133.23 132.57 131.76 128.38 128.73 128.88 128.23 127.55 125.53 125.77 128.24 129.06 130.56 134.62 135.45 131.55 125.74 125.47 125.47 125.47 125.47 125.47 125.47 125.47 125.47 125.67 127.13 128.78 131.43 131.27 129.25 125.51 125.18 125.18 125.18 125.18 125.18 125.18 125.18 125.18 125.18 125.18 125.19 125.19 125.19 125.19 125.19 126.44 130.18 129.5 129.01 129.46 129.74 126.22 127.34 128.6 129.05 127.05 125.21 125.21 125.2 125.2 125.98 133.52 152.29 178.59 207.56 228.3 239.08 240.38 240.96 238.87 232.61 224.94 219.3 215.33 213.4 211.06 206.67 200.98 194.81 189.18 184.65 180.42 174.27 166.75 167.17 167.29 166.69 165.62 164.67 163.69 161.89 -9999 -9999 -9999 -9999
-9999 179.22 179.93 180.63 180.94 181.7 182.14 182 180.72 178.45 175.95 174.09 172.37 170.42 168.76 165.54 162.94 161.17 159.61 157.09 155.12 153.41 151.76 150.25 148.74 147.31 145.17 143.42 142.18 140.9 139.49 138.43 137.13 135.53 134.52 133.83 133.46 133.18 133.79 134.49 133.33 132.76 132.38 130.92 128.19 128.65 128.77 128.02 127.31 125.3 126.15 128.56 129.47 133.1 136.15 136.05 129.3 125.97 125.49 125.47 125.47 125.47 125.47 125.47 125.47 125.47 125.47 126.04 127.98 131.61 131.3 128.56 125.2 125.17 125.18 125.18 125.18 125.18 125.18 125.18 125.18 125.18 125.18 125.18 125.18 125.18 125.18 125.19 127.82 130.02 129.45 128.94 129.17 129.65 127.47 126.48 128.71 128.68 125.52 125.2 125.2 125.2 125.2 128.3 138.97 163.21 192.39 218.57 237.01 241.26 240.73 236.57 227.94 219.65 214.23 211.06 209.21 208.2 205.89 201.67 196.34 190.58 185.08 180.61 177.38 173.1 164.93 164.69 164.91 164.18 162.65 161.06 159.81 157.73 -9999 -9999 -9999 -9999
-9999 178.62 179.24 180.24 181.17 181.74 181.64 180.7 179.11 177.05 175.18 173.21 171.87 170.49 168.23 165.5 163.53 162.07 160.6 157.71 155.25 153.21 151.98 150.47 148.86 147.3 145.47 144.26 143 141.57 139.12 137.09 135.48 134.87 134.29 133.86 133.54 133.17 133.05 134.55 133.32 132.43 132.14 130.21 128.1 128.62 128.72 127.83 126.86 125.16 126.88 128.72 131.13 135.32 137.09 135.48 128.27 128.33 126.62 126.07 126.02 125.71 125.47 125.47 125.47 125.48 125.63 126.63 129.46 131.58 130.64 127.45 125.17 125.17 125.17 125.17 125.17 125.17 125.17 125.17 125.17 125.17 125.18 125.18 125.18 125.18 125.18 125.24 129.13 129.86 129.43 128.95 129.01 129.28 127.82 126.31 128.79 127.11 125.19 125.19 125.19 125.19 125.44 131.95 148.62 176.64 207.27 229.14 237.68 238.78 234.64 226.25 218.18 212.58 207.92 205.55 203.82 202.27 199.75 196.45 191.89 186.44 181.19 177.28 173.82 169.38 162.55 162.28 163.01 161.9 160.25 158.68 157.1 155.24 -9999 -9999 -9999 -9999
-9999 -9999 -9999 -9999 -9999 -9999 -9999 -9999 -9999 -9999 -9999 -9999 171.57 170.39 167.96 165.51 163.87 162.38 161.08 158.19 155.24 153.53 151.79 150.57 148.36 147.13 146.13 144.66 143.32 141.68 138.3 135.75 135.4 135.05 134.51 133.97 133.49 133.1 133.13 134.31 133.02 132.31 131.81 129.17 127.98 128.55 128.66 127.69 126.09 125.31 127.85 129.42 133.73 136.18 137.86 133.21 128.84 128.37 128 127.86 127.87 126.57 125.47 125.47 125.55 128.19 130.96 130.48 131.34 131.65 130.37 126.33 125.16 125.16 125.16 125.16 125.17 125.17 125.17 125.17 125.17 125.17 125.17 125.17 125.17 125.17 125.17 125.51 129.76 129.71 129.32 128.92 128.99 129.19 127.48 126.47 128.72 125.5 125.19 125.19 125.19 125.19 127.33 138.47 164.67 193.51 220.29 232.23 232.91 229.93 225.06 217.38 210.9 206.39 202.61 200.53 198.79 195.81 192.81 189.94 186.42 182.05 177.56 174.55 171.23 166.28 159.86 160.24 160.79 159.66 158.01 156.5 155.22 153.82 -9999 -9999 -9999 -9999
-9999 -9999 -9999 -9999 -9999 -9999 -9999 -9999 -9999 -9999 -9999 -9999 -9999 -9999 -9999 -9999 -9999 -9999 -9999 -9999 -9999 -9999 -9999 -9999 -9999 -9999 -9999 -9999 -9999 -9999 -9999 -9999 -9999 -9999 -9999 -9999 -9999 -9999 -9999 -9999 -9999 -9999 -9999 -9999 -9999 -9999 -9999 -9999 -9999 -9999 -9999 -9999 -9999 -9999 -9999 -9999 -9999 -9999 127.98 127.85 127.88 126.94 125.47 125.47 125.57 132.37 133.66 132.5 132.17 131.58 130.17 125.7 125.16 125.16 125.16 125.16 125.16 125.16 125.16 125.16 125.16 125.17 125.17 125.17 125.17 125.17 125.17 126 129.88 129.62 129.22 128.78 128.98 129.27 126.78 127.13 127.33 125.18 125.18 125.18 125.18 125.25 130.44 150.14 184.06 207.35 222.88 227.62 225.28 220.11 213.73 207.59 203.54 200.38 197.26 195.29 193.22 189.33 185.64 183.13 180.62 177.46 173.51 171.89 169.69 166.02 159.45 157.62 157.98 157.31 156.06 154.88 153.37 151.51 -9999 -9999 -9999 -9999
-9999 -9999 -9999 -9999 -9999 -9999 -9999 -9999 -9999 -9999 -9999 -9999 -9999 -9999 -9999 -9999 -9999 -9999 -9999 -9999 -9999 -9999 -9999 -9999 -9999 -9999 -9999 -9999 -9999 -9999 -9999 -9999 -9999 -9999 -9999 -9999 -9999 -9999 -9999 -9999 -9999 -9999 -9999 -9999 -9999 -9999 -9999 -9999 -9999 -9999 -9999 -9999 -9999 -9999 -9999 -9999 -9999 -9999 -9999 -9999 -9999 -9999 -9999 -9999 -9999 -9999 -9999 -9999 -9999 -9999 -9999 -9999 -9999 -9999 -9999 -9999 -9999 -9999 -9999 -9999 -9999 -9999 -9999 -9999 -9999 -9999 -9999 -9999 -9999 -9999 -9999 -9999 -9999 -9999 -9999 -9999 -9999 -9999 -9999 -9999 -9999 -9999 -9999 -9999 -9999 -9999 222.64 224.16 220.11 213.72 207.91 203.83 200.45 197.43 194.51 191.98 189.23 185.6 181.39 177.13 174.74 172.4 168.29 169.43 166.64 163.42 158.89 155.28 155.71 155.35 154.81 153.44 151.24 150.66 -9999 -9999 -9999 -9999
